ply
format ascii 1.0
element vertex 801
property float x
property float y
property float z
property float nx
property float ny
property float nz
element face 0
property list uchar int vertex_index
end_header
-42.660210 23.819717 -21.603428 -0.252692 -0.090502 -0.963305
-23.855940 141.391327 -46.842262 -0.580080 0.504941 -0.639172
-37.318840 54.518478 -32.013550 -0.611625 -0.515330 -0.600292
-20.973558 134.757111 61.012524 -0.433105 -0.138858 0.890583
-11.967693 40.347523 -29.781082 -0.115881 -0.720408 -0.683801
-50.006317 107.168068 -26.734383 -0.855556 0.072878 -0.512554
-53.304901 68.186966 -19.819160 -0.903069 -0.244754 -0.352934
40.419609 23.033848 22.102341 0.249384 -0.079280 0.965154
27.381094 61.827019 42.651360 0.390512 -0.295254 0.871967
-57.762287 15.665449 -1.543089 -0.976801 -0.079977 -0.198655
7.191902 190.692841 25.262327 0.075280 0.902189 0.424720
34.529140 69.283989 -57.237034 0.966123 -0.099886 0.237967
12.499996 195.747192 5.873097 0.235273 0.968075 0.086466
-42.512180 157.692947 25.829683 -0.813877 0.270683 0.514136
48.815781 132.469849 22.916136 0.862822 0.100456 0.495425
-0.698233 147.123383 -76.223038 0.000000 0.826073 -0.563564
-28.988939 20.069126 21.163519 0.551512 -0.138247 0.822631
-3.113880 129.250519 64.284607 -0.093515 -0.289650 0.952553
52.529346 68.330185 21.326427 0.810325 -0.204311 0.549208
-33.730190 157.172943 47.004414 -0.731111 0.442489 0.519307
32.641994 159.658264 -36.140331 0.591247 0.175154 -0.787241
46.222862 124.418762 -29.524492 0.755113 0.100888 -0.647785
-11.716831 59.365170 -87.020988 -0.088294 -0.518009 -0.850806
-0.754894 36.921314 27.659779 -0.000399 -0.881246 0.472658
57.744614 28.268509 1.755111 0.979255 0.005862 0.202546
-48.577362 149.404953 -19.165846 -0.855416 0.163188 -0.491561
20.377619 70.896194 47.932289 0.250246 -0.151294 0.956288
17.156952 166.340363 -42.023930 0.250229 0.244363 -0.936842
-35.056824 171.018951 -29.871658 -0.660194 0.444903 -0.605149
-51.663757 147.448578 8.123557 -0.970381 0.190718 0.148282
39.648453 98.326500 38.745396 0.581251 0.059598 0.811539
42.776382 4.489852 17.591188 0.199233 -0.501808 0.841721
-38.426872 40.618679 24.976791 -0.422455 -0.236428 0.875005
52.305138 3.200031 -8.636469 0.515643 -0.790998 -0.329295
-20.058006 147.747513 -70.273804 -0.349054 0.916938 -0.193354
-0.047510 114.002884 54.022507 -0.101245 -0.520822 0.847640
-53.091026 56.949192 -15.583368 -0.870217 -0.088801 -0.484600
40.062653 161.213745 -28.599737 0.739180 0.181774 -0.648514
-46.701050 49.225868 -21.927336 -0.689656 -0.134939 -0.711454
7.598978 95.437935 -90.462097 0.000000 0.000000 -1.000000
-30.587595 66.584885 -49.749554 -0.918996 -0.214416 0.330865
-38.953537 181.240723 6.334219 -0.751105 0.652490 0.100492
-29.616615 94.840408 45.363045 -0.423027 0.051532 0.904651
-29.055332 21.844898 21.433231 0.178033 -0.123031 0.976303
16.908846 46.301838 -70.805435 0.095241 -0.968433 -0.230360
23.931984 150.674469 58.461075 0.450307 0.195170 0.871282
51.679787 10.459209 -14.759560 0.588103 -0.129041 -0.798426
-46.129696 157.905899 18.972897 -0.900996 0.261005 0.346529
50.768402 71.442459 25.423021 0.841995 -0.139118 0.521240
53.830509 38.504009 -12.892785 0.852490 -0.024316 -0.522177
38.730362 175.728973 -21.086653 0.782229 0.465202 -0.414373
-39.036530 146.231384 43.959400 -0.920763 0.150383 0.359974
-12.861702 49.194897 -38.637203 -0.235280 -0.873557 -0.426077
7.164670 192.733719 20.900129 0.078469 0.903396 0.421567
52.095638 145.329193 7.845204 0.977395 0.149184 0.149812
-1.900229 121.803864 -89.786484 0.000000 0.080980 -0.996716
59.391136 74.466797 1.374889 0.986221 -0.064740 0.152242
23.564137 192.733826 -1.173314 0.400704 0.912563 -0.081637
-44.873589 30.635935 21.422474 -0.604741 -0.047003 0.795034
-22.078342 8.166929 -12.552279 0.804415 -0.301924 -0.511623
-1.693113 163.172668 -45.602791 -0.102397 0.266817 -0.958292
30.205900 170.939606 33.373009 0.547560 0.439306 0.712171
54.578869 3.105561 1.152401 0.602449 -0.788501 0.123781
56.294788 70.247536 13.602345 0.903201 -0.245057 0.352385
16.170397 66.263855 -88.468857 0.084801 -0.251148 -0.964227
-55.109116 33.402077 -10.718761 -0.850399 -0.006764 -0.526096
-35.188164 93.677826 -77.346512 -0.909090 0.000000 -0.416600
-23.231876 108.596169 47.291439 -0.398539 0.091287 0.912597
-36.704464 47.644409 -28.300385 -0.549033 -0.362493 -0.753102
56.178356 120.419594 -4.716689 0.990041 0.118035 -0.076720
-1.869913 194.295242 -17.913971 -0.077737 0.959091 -0.272215
13.741913 29.041859 14.366396 -0.322368 -0.794287 0.514963
57.008236 22.943829 5.470191 0.979378 0.006410 0.201936
-58.774948 68.970062 2.055451 -0.978828 -0.100778 0.178157
-15.821643 47.869553 -50.461823 -0.117230 -0.839099 0.531196
-51.460400 118.595764 -22.241486 -0.854682 0.105409 -0.508337
-44.769829 99.070740 -34.454582 -0.756986 0.062902 -0.650396
-12.873526 158.477753 60.110111 -0.261080 0.427341 0.865573
9.721427 44.377132 -65.684319 -0.000000 -0.972964 -0.230955
-23.236116 146.657883 -44.694168 -0.522061 0.254109 -0.814175
25.931730 56.243889 -39.563354 0.365124 -0.564604 -0.740207
58.015373 24.213266 0.563426 0.979255 0.005862 0.202546
56.894356 32.269234 5.747220 0.979111 0.006363 0.203226
-40.454117 147.796478 34.598202 -0.986882 0.065026 -0.147770
36.197021 84.733047 -42.326550 0.572267 -0.029991 -0.819519
3.379619 188.272705 -28.593128 0.077589 0.766882 -0.637080
-2.764073 194.086197 18.820992 -0.078469 0.903396 0.421567
31.118429 139.664886 -61.803844 0.891716 0.330816 0.308873
-11.656099 160.849808 59.306221 -0.261080 0.427341 0.865573
-48.318207 11.944017 -17.475594 -0.588103 -0.129041 -0.798426
-19.103287 7.638365 6.333665 0.934921 -0.299882 0.189719
43.695274 147.467865 28.075232 0.800223 0.199734 0.565464
41.187141 97.494370 -38.141712 0.628823 0.036540 -0.776689
18.802578 192.934021 -12.656500 0.234140 0.937152 -0.258697
-28.206852 66.645668 -84.367004 -0.600815 -0.267888 -0.753165
2.568540 191.256271 -23.931482 0.076877 0.882647 -0.463706
33.856762 158.993347 44.334160 0.796357 0.491336 0.352711
25.619968 187.331497 -20.273571 0.368272 0.838887 -0.400805
-16.567703 16.448139 2.122125 0.973430 -0.130461 0.188188
23.328457 191.780090 10.209878 0.393574 0.890035 0.230081
-36.311676 6.307908 -19.518063 0.161611 -0.514654 -0.842029
-34.025242 71.198936 -55.435764 -0.877858 -0.092996 0.469805
-54.842262 74.276131 -18.955656 -0.931628 -0.145232 -0.333131
3.609112 29.370050 2.832443 -0.281125 -0.951920 0.121727
47.811115 81.592758 31.385303 0.731214 -0.021262 0.681817
-1.960177 168.806488 55.027935 -0.091964 0.740129 0.666147
-56.826427 37.699238 5.904479 -0.979111 0.006363 0.203226
-34.810932 60.094330 -67.891800 -0.904813 -0.402082 -0.140155
1.196043 51.723373 43.404236 0.076478 -0.507520 0.858239
32.506363 126.115540 44.932617 0.733246 -0.561000 0.384224
-53.959270 54.448917 -13.661220 -0.868032 -0.058627 -0.493034
-23.541550 142.236588 -50.017807 -0.530486 0.829035 0.176877
38.469364 145.178574 45.849949 0.920763 0.150383 0.359974
58.774845 71.456947 4.087277 0.986221 -0.064740 0.152242
48.719429 165.793533 -0.504280 0.938366 0.339559 -0.064566
20.590618 95.121780 49.162437 0.252758 0.026871 0.967156
-31.197617 59.229740 39.666882 -0.486728 -0.430343 0.760198
-33.171345 172.409210 -31.023090 -0.517272 0.413380 -0.749364
48.262688 145.858780 -20.873316 0.853710 0.158142 -0.496155
-7.749074 56.338066 45.529465 -0.081228 -0.502411 0.860805
25.676880 188.480377 18.079464 0.374869 0.846883 0.377177
-43.098022 0.347268 9.877880 -0.118136 -0.978576 0.168621
-19.409212 50.078300 -78.041534 -0.347198 -0.789428 -0.506219
54.928703 120.402100 9.319187 0.977234 0.101612 0.186249
-21.394627 27.239872 -18.314121 0.310546 -0.446764 -0.839025
26.860533 85.568924 -87.188843 0.617764 0.000000 -0.786363
7.070480 184.146576 -33.110390 0.077569 0.766871 -0.637096
34.998432 89.847107 -55.046062 0.937520 -0.013071 0.347685
21.047102 66.569427 -87.559570 0.285844 -0.263805 -0.921249
-27.487789 175.539566 32.580441 -0.526315 0.468186 0.709785
57.177380 13.622296 -3.596676 0.976798 -0.079988 -0.198665
28.766117 50.349327 -62.099857 0.639004 -0.760962 0.112294
28.884966 78.997719 -85.598450 0.617764 0.000000 -0.786363
-7.321892 107.173157 51.795082 -0.090360 0.021574 0.995676
-29.789133 97.535454 45.128853 -0.423027 0.051532 0.904651
-53.201149 132.711090 -13.137657 -0.940922 0.132286 -0.311715
-5.418417 196.227142 10.097673 -0.080348 0.964561 0.251329
-29.831448 91.245064 -84.854904 -0.617764 0.000000 -0.786363
42.496899 178.279266 -1.988896 0.844814 0.531171 -0.064399
40.255306 3.725987 17.732529 0.199233 -0.501808 0.841721
-18.704767 121.410919 -89.042557 -0.085605 0.079681 -0.993138
37.010651 183.071136 8.971064 0.751105 0.652490 0.100492
-54.047112 94.011070 21.556915 -0.851813 0.063352 0.520001
31.800793 167.058762 -34.475368 0.565744 0.260703 -0.782283
34.710987 161.374817 34.598446 0.683477 0.383972 0.620826
13.589268 75.692833 -89.950058 0.086630 -0.086645 -0.992466
-55.671139 103.537415 -15.717311 -0.944136 0.079302 -0.319873
3.966926 114.211349 -90.403351 0.000000 0.080980 -0.996716
-2.105475 65.040283 -88.724014 0.000000 -0.250292 -0.968170
20.376297 188.942932 -21.493292 0.331029 0.836097 -0.437449
-20.495676 3.768113 0.946953 0.800791 -0.577362 0.159335
35.489513 125.852280 41.429310 0.854919 -0.353611 0.379570
-51.967804 94.511017 -25.109190 -0.855015 0.053411 -0.515846
21.847900 46.405830 -63.756165 0.325136 -0.941575 0.087880
-18.506367 141.328796 62.390198 -0.268227 0.098311 0.958326
-14.824224 30.721142 17.634092 0.322365 -0.794287 0.514965
58.488731 101.103287 -2.435236 0.990761 0.101135 -0.090361
-42.077759 156.483185 27.154280 -0.813877 0.270683 0.514136
-16.710117 51.029633 -45.590122 -0.181334 -0.804193 0.566031
1.635375 94.332100 -90.462090 0.000000 0.000000 -1.000000
-15.213557 45.975334 -70.133720 -0.095241 -0.968433 -0.230360
58.831276 86.857841 -7.963236 0.993175 0.019292 -0.115027
0.337461 137.536896 65.648087 0.094082 0.001535 0.995563
-18.837994 77.146492 49.217247 -0.246229 -0.067982 0.966825
48.845161 122.004158 -25.931793 0.854682 0.105409 -0.508337
-35.358524 112.921021 -76.974754 -0.909090 0.000000 -0.416601
-28.484066 101.964767 -85.913391 -0.617764 0.000000 -0.786363
-57.894806 18.643248 -1.307187 -0.979256 0.005853 -0.202543
-24.556648 189.412720 -16.745277 -0.374246 0.890619 -0.258338
-1.953053 29.977610 8.495814 0.026214 -0.994791 0.098507
51.664352 42.147568 16.584335 0.857175 -0.023591 0.514484
-20.042439 157.774719 57.947006 -0.431410 0.427131 0.794635
-43.682835 76.950966 -35.824306 -0.746805 -0.140447 -0.650043
-13.019827 87.218819 51.195480 -0.248906 -0.011499 0.968459
-19.258646 131.178848 -86.894249 -0.287746 0.216453 -0.932926
33.599613 177.516724 24.739624 0.719039 0.547047 0.428629
-53.882786 135.298843 5.871109 -0.979849 0.126942 0.154210
-32.320560 140.380463 -40.222775 -0.614216 0.131119 -0.778168
-52.582047 129.891876 14.212229 -0.933325 0.084345 0.348984
-49.102913 163.054016 -7.672974 -0.976236 0.206436 -0.065930
-43.303497 151.081085 27.455847 -0.790700 0.181633 0.584639
54.840130 131.053253 3.283012 0.979849 0.126942 0.154210
5.179471 82.000839 -90.462097 0.000000 0.000000 -1.000000
-8.363745 184.214981 -32.870564 -0.077589 0.766882 -0.637080
-11.386925 48.989273 -39.029999 -0.235280 -0.873557 -0.426077
-6.978908 47.189823 -50.042480 -0.008155 -0.912560 0.408861
-13.229655 149.252121 -68.317787 -0.113859 0.969469 -0.217179
5.808462 50.273453 41.821480 0.075573 -0.644227 0.761091
-15.436572 171.649872 -40.074825 -0.222735 0.411566 -0.883744
-48.244583 155.743912 -16.644232 -0.930898 0.205383 -0.302071
5.819419 192.599762 21.437563 0.078469 0.903396 0.421567
-37.915771 73.336357 -39.863991 -0.596704 -0.151498 -0.788031
-10.380932 155.338562 -46.705116 -0.101150 0.213605 -0.971669
53.674129 107.421860 -20.571722 0.855875 0.091368 -0.509047
-29.431894 0.154300 3.870029 -0.000000 -1.000000 0.000000
-44.988297 2.032959 -13.946079 -0.346889 -0.796565 -0.495129
11.379789 47.725693 -76.209282 0.095783 -0.840390 -0.533451
-49.303062 0.919625 -7.440445 -0.176213 -0.977898 -0.112532
8.476426 93.407242 51.852200 0.086250 0.002558 0.996270
-22.125101 125.839905 57.386131 -0.395935 -0.508514 0.764624
-8.740838 104.876823 -90.462105 0.000000 0.000000 -1.000000
-30.935387 112.146049 -83.987648 -0.617764 0.000000 -0.786363
-56.350994 111.151886 7.694328 -0.977372 0.139953 0.158607
27.039940 176.339523 -32.808952 0.457826 0.562889 -0.688151
-51.529488 48.415195 17.221512 -0.868032 -0.058627 0.493034
-2.884028 192.138992 -22.198963 -0.076877 0.882647 -0.463706
22.366644 145.739227 -56.444901 0.390071 0.867277 0.309314
-16.030533 56.294827 43.944901 -0.230416 -0.475666 0.848911
3.493808 165.822220 57.637890 0.094350 0.569853 0.816312
-51.739769 131.753738 16.014835 -0.933325 0.084345 0.348984
37.224495 41.329884 -25.749538 0.422442 -0.236420 -0.875014
-42.874771 93.248642 36.391499 -0.727132 0.044241 0.685071
-24.609665 75.198013 47.215950 -0.413048 -0.153433 0.897691
22.139223 127.021530 58.164650 0.395935 -0.508514 0.764624
-12.140669 62.803909 -87.928802 -0.086704 -0.249349 -0.964524
-15.545238 149.195190 -62.911690 -0.104444 0.981303 0.161668
12.658572 27.690331 11.505842 -0.410181 -0.759849 0.504361
5.473331 114.002815 53.361366 0.103305 -0.539323 0.835739
-47.463272 86.897583 -32.100624 -0.756253 -0.016101 -0.654082
-26.461132 104.499229 46.181858 -0.411137 0.081551 0.907918
9.649418 137.724930 64.765640 0.094792 0.002781 0.995493
-36.694790 102.113441 -72.446625 -0.994806 0.003727 -0.101723
-2.710037 64.102989 -88.481712 0.000000 -0.250292 -0.968170
7.816890 46.096565 -72.927910 0.000000 -0.972964 -0.230955
50.221069 154.923370 8.138098 0.971006 0.178236 0.159309
-12.679843 139.596268 -83.917191 -0.088593 0.464861 -0.880940
53.671333 76.792732 -22.165470 0.842897 -0.138199 -0.520024
-18.082434 9.621481 -4.437669 0.934922 -0.299882 -0.189717
20.218948 148.313080 -67.301239 0.349054 0.916938 -0.193354
-27.161575 154.780289 55.260429 -0.610315 0.316947 0.725989
29.477127 72.618729 44.522831 0.419765 -0.143620 0.896198
12.940226 150.203156 62.681053 0.269620 0.202622 0.941408
36.932858 39.060673 25.277134 0.422455 -0.236428 0.875005
42.904408 72.774277 35.375961 0.724023 -0.140533 0.675309
37.086914 77.907372 -67.511734 0.996204 0.000000 -0.087052
-32.094952 25.776661 22.482986 0.178033 -0.123031 0.976303
47.036339 65.470177 -28.535442 0.820716 -0.271318 -0.502803
26.878967 24.391594 20.568632 -0.512454 -0.226568 0.828286
28.309759 61.674343 -48.174007 0.768766 -0.354972 0.531972
-14.890678 194.093994 12.207832 -0.234580 0.941585 0.241641
7.570286 103.096741 -90.462097 0.000000 0.000000 -1.000000
39.636669 181.322647 -4.725320 0.723835 0.687053 -0.063416
44.161396 29.941780 -21.708155 0.259909 -0.078542 -0.962434
-42.926613 92.017616 36.415974 -0.727132 0.044241 0.685071
-43.572117 71.962875 34.491196 -0.723837 -0.140151 0.675587
-13.580742 168.777100 -41.949272 -0.236341 0.425277 -0.873660
-1.375044 38.372807 -28.670195 -0.016039 -0.763836 -0.645211
-37.355915 99.197769 -41.123875 -0.629876 0.056364 -0.774648
-30.394947 0.154300 4.090912 -0.000000 -1.000000 -0.000000
54.099003 11.645030 -11.222894 0.840080 -0.104186 -0.532364
-26.162151 10.814925 17.587494 0.521340 -0.262725 0.811899
-3.055410 165.361023 58.009605 -0.093530 0.568590 0.817287
-5.074470 56.583534 45.925114 -0.081228 -0.502411 0.860805
26.078186 130.252930 -84.833229 0.607719 0.217177 -0.763879
-11.420866 195.903152 7.063223 -0.235273 0.968075 0.086466
-15.081611 195.166000 -5.355442 -0.235273 0.968075 -0.086466
-7.069965 102.706093 -90.462097 0.000000 0.000000 -1.000000
43.329544 149.011749 -28.065655 0.742932 0.153274 -0.651581
-30.619879 178.608185 -28.326227 -0.568511 0.604060 -0.558486
-15.326220 44.991722 -63.710564 -0.095778 -0.991744 0.085262
54.784142 128.480881 5.308826 0.978982 0.102729 0.176182
-53.047043 123.339943 14.806100 -0.932648 0.103194 0.345714
-21.914194 152.733597 58.924458 -0.446384 0.312428 0.838528
32.863319 176.273163 26.905174 0.600021 0.533575 0.596047
-16.711527 46.338276 -71.040215 -0.095241 -0.968433 -0.230360
-40.780640 1.851216 15.208473 -0.137432 -0.802506 0.580601
54.838276 105.017479 -17.808641 0.944136 0.079302 -0.319873
56.944263 44.650745 -5.386895 0.979298 -0.002829 -0.202406
4.568752 39.068146 -29.327888 0.043241 -0.744304 -0.666439
-27.507927 190.723236 4.290527 -0.400704 0.912563 0.081638
26.652487 155.171829 55.517471 0.610315 0.316947 0.725989
23.031448 12.344490 -15.886138 -0.550505 -0.134685 -0.823896
-34.505604 96.420715 -43.297363 -0.577701 0.032843 -0.815587
-11.276853 26.013847 3.510350 0.503721 -0.842156 0.192453
35.659256 12.992455 -21.533455 -0.163858 -0.227991 -0.959776
51.551487 37.810135 -16.581129 0.852490 -0.024316 -0.522177
51.587784 50.454529 -17.361462 0.868032 -0.058627 -0.493034
20.753614 193.730118 3.714433 0.397642 0.913587 0.085079
-43.162193 40.935181 23.231094 -0.318258 -0.137811 0.937934
17.808105 15.302324 -7.678172 -0.972860 -0.134279 -0.188448
-14.808588 43.349270 33.952370 -0.179723 -0.728201 0.661379
-34.451599 1.502328 -14.685795 0.111491 -0.806309 -0.580892
-14.496941 22.813107 3.593825 0.720400 -0.661877 0.207225
32.429821 119.008072 -82.277100 0.618085 0.076296 -0.782400
17.719498 148.339050 61.713997 0.268202 0.200070 0.942359
-54.663719 135.796570 0.499309 -0.979849 0.126942 0.154210
30.519672 44.230743 -28.758614 0.103835 -0.482046 -0.869971
-21.801390 36.210827 -23.984440 0.163276 -0.590183 -0.790585
-45.976261 0.226558 -6.627128 -0.176212 -0.977899 -0.112527
-3.317633 149.707672 -49.025307 -0.110478 0.430139 -0.895977
42.115608 84.352448 37.491428 0.586985 -0.031165 0.808998
16.808105 173.230133 41.411957 0.332142 0.941335 -0.059760
-38.597580 149.657227 43.505821 -0.883799 0.322097 0.339342
-38.900517 138.118423 44.342995 -0.936658 -0.309027 0.164846
6.583418 101.873718 51.956974 0.088439 0.016347 0.995948
42.117138 98.972633 36.580070 0.721721 0.086614 0.686743
-17.732861 87.094452 49.982689 -0.248906 -0.011499 0.968459
34.723362 112.774475 -41.971336 0.580492 0.073680 -0.810926
45.628780 146.395081 -25.234407 0.853710 0.158142 -0.496155
-52.494507 8.659300 13.170479 -0.840083 -0.104185 0.532358
15.908522 46.364395 -71.482025 0.095241 -0.968433 -0.230360
58.279991 79.595146 -11.413507 0.941095 -0.010266 -0.337987
46.032516 124.035515 -29.806063 0.755113 0.100888 -0.647785
-39.480415 16.813095 21.807144 -0.240977 -0.091586 0.966200
57.219822 59.556499 -5.865076 0.979270 -0.064354 -0.192065
-17.632778 16.331657 7.518613 0.972519 -0.134331 0.190161
30.111408 0.154300 -2.111701 0.000000 -1.000000 0.000000
58.110619 57.732079 -0.756427 0.980303 -0.029655 -0.195258
-3.939905 187.503891 30.609018 -0.075849 0.815697 0.573485
-15.699038 26.700874 -12.826742 0.564511 -0.588923 -0.578357
35.455956 180.251770 18.623650 0.655663 0.591361 0.469466
-11.214230 31.360338 16.247698 0.010515 -0.929497 0.368679
29.747387 61.741524 -40.914494 0.403583 -0.453658 -0.794553
36.699287 116.341919 -70.237930 0.993951 0.059893 -0.092061
-6.449003 129.852600 -88.173279 0.000000 0.221638 -0.975129
34.467709 159.209305 40.865673 0.836988 0.539678 -0.090549
-21.171768 113.783363 -88.938828 -0.288360 0.077824 -0.954354
-42.504002 177.087997 -9.429085 -0.811025 0.520317 -0.267411
19.653938 41.031796 -28.504128 0.068039 -0.713203 -0.697648
-48.617409 104.002480 28.615870 -0.846198 0.106067 0.522206
-26.658297 0.496311 -2.102180 0.203747 -0.978184 -0.040540
25.990768 11.195819 -17.600733 -0.521345 -0.262741 -0.811891
-30.558285 162.822678 44.343235 -0.709127 0.688891 0.150224
2.920489 29.171564 -0.591720 -0.037390 -0.994771 -0.095045
-18.307781 11.298353 -7.415338 0.972521 -0.134325 -0.190159
51.776684 81.417778 25.873985 0.850996 -0.020293 0.524780
-6.105209 60.029709 47.653641 -0.081083 -0.319212 0.944208
37.610794 69.784058 39.080879 0.573802 -0.145905 0.805892
40.010529 72.271339 -38.073074 0.596704 -0.151498 -0.788031
57.656845 34.156746 -2.002506 0.979123 0.005861 -0.203182
57.294853 56.259308 -4.628327 0.980303 -0.029655 -0.195258
37.271130 101.002007 -66.850967 0.994806 0.003727 -0.101723
-48.855061 92.397430 -30.211845 -0.757670 0.046427 -0.650984
-46.880035 170.019455 -5.539234 -0.942414 0.329806 -0.055525
41.202866 58.267624 -31.175804 0.635756 -0.291941 -0.714552
-47.908833 75.660721 -30.697010 -0.745495 -0.137706 -0.652130
2.199440 183.080154 35.886845 0.076781 0.689213 0.720479
57.647644 27.231541 -2.253976 0.979256 0.005862 -0.202544
56.860844 21.867741 6.219203 0.979378 0.006410 0.201936
-9.439077 95.444588 -90.462097 0.000000 0.000000 -1.000000
-16.949432 14.576824 2.784224 0.972519 -0.134331 0.190161
-53.509476 66.880272 -18.389534 -0.903069 -0.244754 -0.352934
28.359596 45.619148 -30.073557 0.286277 -0.625369 -0.725920
-43.599689 49.613544 24.941114 -0.458791 -0.300675 0.836125
40.514606 159.231262 28.135658 0.777544 0.250952 0.576583
52.682808 111.132980 19.474751 0.925207 0.151357 0.347969
21.812893 52.071793 -79.501694 0.347198 -0.789428 -0.506219
-28.733334 94.411499 45.800514 -0.423027 0.051532 0.904651
5.307329 44.955490 -57.841125 0.000000 -0.996325 0.085656
-20.938435 154.946487 58.619385 -0.446384 0.312428 0.838528
-17.383905 176.049652 -37.279087 -0.204780 0.590258 -0.780808
-57.201790 104.647423 7.279957 -0.982218 0.095292 0.161762
-37.277245 142.309814 -36.019798 -0.610864 0.125297 -0.781758
41.225227 148.047760 -30.696621 0.743935 0.155464 -0.649916
-51.906464 152.382553 -0.568891 -0.980044 0.181416 -0.081250
30.316797 142.218033 -66.083885 0.689667 0.707636 -0.153657
21.815525 100.019547 -88.768379 0.289237 0.000000 -0.957257
10.462551 33.175365 -20.865070 -0.028247 -0.861871 -0.506340
-57.484272 27.579130 -3.033105 -0.979246 0.006389 -0.202575
-11.918316 195.994949 -4.681806 -0.235273 0.968075 -0.086466
-36.660965 68.612381 -39.535442 -0.531881 -0.295091 -0.793740
-27.905584 164.432404 45.964516 -0.563669 0.741828 0.363275
48.756081 142.315796 20.671736 0.865962 0.137499 0.480837
-2.482539 192.186951 -22.174250 -0.076877 0.882647 -0.463706
25.912678 91.710693 -87.530418 0.289237 0.000000 -0.957257
-53.832417 106.076813 -20.503006 -0.855556 0.072878 -0.512554
52.428223 149.099747 1.200758 0.971006 0.178236 0.159309
56.053860 110.082344 -12.817316 0.943257 0.098025 -0.317265
-41.657429 71.032143 -36.587791 -0.596704 -0.151498 -0.788031
-17.061293 158.679916 -44.085861 -0.262354 0.258483 -0.929708
38.472214 66.534775 37.504322 0.567709 -0.245337 0.785822
-14.225368 101.598694 50.648548 -0.259345 0.039384 0.964981
55.896271 99.079674 15.343876 0.934120 0.136103 0.329995
34.141182 144.948486 52.568024 0.800993 0.002486 0.598669
3.216329 147.645340 -50.252121 0.066617 0.993318 -0.094241
-54.970215 128.257523 4.405131 -0.978982 0.102729 0.176182
9.348573 195.344299 -12.021541 0.080270 0.959608 -0.269645
27.869627 184.383743 -23.595993 0.486835 0.777387 -0.398324
-23.169754 39.083130 26.342672 0.017397 -0.642937 0.765722
15.732864 185.991455 29.643866 0.208851 0.800136 0.562285
-44.913361 66.330040 31.242672 -0.702631 -0.236836 0.670983
25.175430 122.777214 51.910091 0.557604 -0.711028 0.428390
-27.962284 16.155325 -19.817589 0.551511 -0.138250 -0.822632
-38.972771 6.505065 -19.666611 -0.219196 -0.499099 -0.838363
27.865963 122.586830 -85.533493 0.618085 0.076296 -0.782400
-16.969658 191.954651 -17.787106 -0.224179 0.936685 -0.269007
42.516983 104.120728 -36.575359 0.628190 0.057842 -0.775907
48.076988 17.599167 18.332987 0.583681 -0.049410 0.810478
15.212885 193.757935 -12.920797 0.234140 0.937152 -0.258697
-20.580294 82.895790 -89.141609 -0.289237 -0.000000 -0.957257
12.712511 195.746613 -5.301210 0.235273 0.968075 -0.086466
8.678009 56.613991 45.602852 0.081228 -0.502411 0.860805
-0.970121 42.901367 35.547180 -0.038752 -0.774076 0.631906
-23.985601 59.218269 43.057461 -0.381400 -0.428107 0.819304
4.465296 191.352478 -23.433918 0.076877 0.882647 -0.463706
6.439405 173.410492 45.887394 0.082805 0.454026 0.887132
15.339231 20.521811 1.846928 -0.913903 -0.349615 0.206279
24.895485 0.972026 -4.720984 -0.203747 -0.978184 -0.040540
-33.043888 92.960617 -82.025665 -0.909090 -0.000000 -0.416600
11.292046 196.230713 -3.746458 0.235273 0.968075 -0.086466
37.675247 0.807804 -13.701268 -0.037842 -0.979643 -0.197147
-27.540472 49.230164 -66.398926 -0.632023 -0.743787 -0.217550
56.372662 47.688557 -8.194924 0.979298 -0.002829 -0.202406
54.886024 17.967892 -10.841107 0.845535 -0.011395 -0.533799
-38.689995 110.257065 -39.156548 -0.629027 0.076566 -0.773604
-41.634872 146.834869 31.075928 -0.799086 0.127120 0.587624
-14.570055 47.640823 -50.556099 -0.124330 -0.937893 0.323880
35.762337 82.982254 -58.163914 0.976704 -0.059478 0.206183
-13.091229 155.013626 61.309357 -0.267251 0.309138 0.912694
-6.275766 33.476200 21.221663 -0.036669 -0.869148 0.493190
-18.875725 193.620407 10.184592 -0.234580 0.941585 0.241641
-49.600487 158.113251 7.526988 -0.953736 0.241817 0.178638
-19.022884 26.013514 -15.614269 0.617124 -0.551665 -0.561091
32.209732 184.931030 16.118959 0.563876 0.791181 0.236804
-20.992403 156.315155 58.093925 -0.438574 0.296682 0.848312
-32.421581 138.624390 -64.337662 -0.881179 0.343163 0.325213
12.570601 179.060043 -36.274288 0.209033 0.593484 -0.777227
-34.677467 94.926285 -54.113453 -0.939415 0.009732 0.342644
43.196056 149.797531 27.999920 0.790700 0.181633 0.584639
-52.931061 44.713821 -14.629929 -0.856108 -0.015850 -0.516553
41.153915 136.740433 33.547855 0.821965 0.072632 0.564888
22.735794 165.857315 50.156273 0.409618 0.715167 0.566348
-32.705395 142.090240 53.925999 -0.623866 0.056262 0.779503
-29.277996 67.069580 43.456909 -0.410242 -0.269717 0.871180
45.098068 147.015198 -25.949923 0.853710 0.158142 -0.496155
10.025998 82.358551 51.501877 0.085425 -0.068390 0.993995
15.247313 37.875778 27.344746 0.134047 -0.802084 0.581973
-23.660046 108.182884 -88.211052 -0.289237 0.000000 -0.957257
57.596344 110.282784 1.160836 0.976482 0.109977 0.185440
-37.464577 42.102985 -25.842516 -0.422442 -0.236420 -0.875014
-33.996258 122.827690 -56.113953 -0.890329 0.175467 0.420149
25.987541 53.616592 38.999252 0.342145 -0.471369 0.812864
-43.396431 1.847561 -14.584354 -0.137421 -0.802508 -0.580600
-16.690426 46.267319 -70.750626 -0.095241 -0.968433 -0.230360
54.541821 75.527969 -20.341625 0.931628 -0.145232 -0.333131
19.066750 189.986572 -20.489550 0.331029 0.836097 -0.437449
-59.087696 92.834023 2.453839 -0.989580 0.067294 0.127293
-34.697437 158.530823 42.451416 -0.842647 0.526295 0.113838
31.416428 175.605545 28.928137 0.647263 0.432412 0.627751
-59.195503 92.070595 -2.323054 -0.991736 0.069011 -0.108152
-2.104808 175.049805 44.584312 -0.080595 0.922565 0.377330
-34.376446 24.674314 22.762297 0.182344 -0.119904 0.975896
-36.297604 103.981705 -41.559311 -0.577884 0.054110 -0.814323
30.617474 8.740988 19.584728 -0.176392 -0.250619 0.951880
-4.430317 170.291351 52.799328 -0.089391 0.852713 0.514674
19.427418 102.603951 49.218147 0.256621 0.043125 0.965550
-28.034348 129.220123 -45.840179 -0.813506 0.203603 -0.544751
-45.839241 107.642105 31.704313 -0.685091 0.077475 0.724326
12.567282 45.136227 -34.539211 0.133065 -0.749415 -0.648591
-9.624433 38.644905 -28.308022 -0.094884 -0.743061 -0.662464
-20.104450 194.018860 -3.647995 -0.397642 0.913588 -0.085079
30.018326 171.175949 -33.861717 0.513885 0.405484 -0.755979
-35.878838 84.421738 -42.537346 -0.572267 -0.029991 -0.819519
-22.020510 118.940758 50.123932 -0.399322 -0.235633 0.886013
-34.546089 65.884529 -58.667931 -0.956056 -0.139811 0.257702
-3.510579 136.534454 -85.829926 0.000000 0.466696 -0.884418
31.346918 70.399460 43.291401 0.419765 -0.143620 0.896198
-56.320892 122.267502 -0.276998 -0.990238 0.113861 -0.080401
45.313789 0.813511 11.031336 0.118132 -0.978577 0.168620
-22.986317 11.222249 -15.620065 0.839085 -0.135192 -0.526933
9.864792 32.390209 -18.997364 -0.002405 -0.932717 -0.360602
33.331673 131.460068 50.983391 0.805866 -0.375913 0.457460
-22.818491 157.385559 -42.311569 -0.427612 0.162286 -0.889276
-38.630692 131.342331 37.903748 -0.936233 -0.337581 -0.097500
33.951778 73.412575 -79.302856 0.905684 -0.073708 -0.417497
57.570644 72.897141 11.445174 0.924220 -0.099664 0.368624
7.744699 133.319244 -87.385345 0.000000 0.221638 -0.975129
38.369171 23.585409 -22.707031 0.252692 -0.090502 -0.963305
-29.155170 168.951447 35.440269 -0.558500 0.496926 0.664186
36.389790 69.552261 -69.173096 0.994398 -0.065041 -0.083316
19.754446 50.373840 -37.600597 0.275929 -0.663430 -0.695503
-35.720982 115.555023 -59.356335 -0.960877 0.078583 0.265595
-32.885010 175.411575 27.547525 -0.647263 0.432412 0.627751
-36.461769 75.161377 -62.616287 -0.966123 -0.099886 0.237967
-35.570747 182.136139 14.750081 -0.752687 0.604011 0.261979
-28.363503 59.753357 41.299068 -0.381400 -0.428107 0.819304
2.806102 155.098450 62.908012 0.094799 0.306176 0.947243
47.745728 141.940170 -22.874266 0.855956 0.140965 -0.497461
-16.286261 109.995483 49.734219 -0.259002 0.019809 0.965674
36.560532 98.673393 -41.725456 0.577884 0.054110 -0.814323
50.057198 128.782486 -22.368917 0.854718 0.121906 -0.504576
-46.878014 12.549572 18.618727 -0.572956 -0.150087 0.805727
57.699062 64.215637 5.295438 0.980386 -0.081416 0.179484
-50.233353 77.399513 27.962740 -0.844370 -0.146791 0.515259
53.731941 102.640259 20.001938 0.934120 0.136103 0.329995
25.295317 58.392017 -41.971840 0.694287 -0.551213 -0.462742
-37.382584 76.957939 40.505051 -0.579715 -0.137132 0.803197
-4.275888 94.817787 52.216263 -0.089221 -0.001991 0.996010
56.151981 26.042511 8.935205 0.847873 -0.006942 0.530154
50.431210 72.869644 26.348625 0.841995 -0.139118 0.521240
11.721402 50.141842 40.968395 0.177902 -0.642380 0.745452
23.982224 30.025898 -20.834473 -0.371874 -0.409963 -0.832851
-2.562030 108.416611 -90.462097 0.000000 0.000000 -1.000000
-45.718842 133.180634 -28.577379 -0.751281 0.117038 -0.649522
21.521608 130.338165 59.811462 0.412147 -0.299670 0.860426
53.277298 41.988457 -13.958199 0.852490 -0.024316 -0.522177
1.318242 45.688454 -54.757977 0.000000 -0.959696 0.281039
46.302006 35.638218 -20.712988 0.613271 -0.076559 -0.786154
-30.812187 90.690956 44.943119 -0.426608 0.018088 0.904256
-40.860527 0.154300 0.132185 0.000000 -1.000000 0.000000
10.799850 91.735046 -90.368362 0.086957 0.000000 -0.996212
11.611526 193.658813 16.842045 0.225257 0.941300 0.251425
18.387272 194.574585 2.790558 0.238312 0.967622 0.083151
15.498951 122.491898 -89.232162 0.085605 0.079681 -0.993138
-32.383286 62.250969 40.337654 -0.546734 -0.272947 0.791569
36.049950 184.403336 7.501714 0.751105 0.652490 0.100492
-3.535408 171.815247 50.368568 -0.082972 0.943827 0.319852
21.809998 193.537720 -0.796691 0.400704 0.912563 -0.081637
-18.727093 183.575531 -30.349167 -0.299930 0.737030 -0.605663
39.868404 89.829208 -39.575623 0.626315 0.038793 -0.778605
-52.881729 67.066505 -20.124928 -0.903069 -0.244754 -0.352934
-35.426388 182.170227 15.086224 -0.752687 0.604011 0.261979
-49.991005 152.911011 -12.930963 -0.937216 0.171225 -0.303821
-4.413830 197.149567 -1.778391 -0.081484 0.992995 -0.085559
-48.710155 0.349383 1.516198 -0.206158 -0.977601 0.042359
-10.598724 147.191620 -50.054237 -0.053776 0.996953 -0.056513
-38.857643 141.704620 -34.810497 -0.749281 0.135939 -0.648150
46.509483 127.066620 27.717117 0.789854 0.044960 0.611644
55.725597 103.942039 -15.456262 0.944136 0.079302 -0.319873
3.105638 54.320694 -84.185120 -0.000000 -0.516523 -0.856273
-33.055309 43.858067 28.125439 -0.170933 -0.514869 0.840055
48.364822 147.506897 19.364956 0.929629 0.197593 0.311042
16.983503 11.808775 1.036160 -0.972743 -0.130379 0.191758
34.178787 63.024075 39.364090 0.546734 -0.272947 0.791569
-52.198795 1.527392 2.683230 -0.602451 -0.788500 0.123780
-31.618591 57.283745 -55.803196 -0.817584 -0.344412 0.461451
-36.119350 101.139206 -41.874691 -0.577884 0.054110 -0.814323
-32.200058 58.047367 38.355721 -0.486728 -0.430343 0.760198
-13.359315 186.812195 -28.324253 -0.207976 0.758156 -0.618017
-52.924545 130.403656 -14.944768 -0.940504 0.129872 -0.313984
24.201141 124.099625 54.547222 0.562620 -0.568490 0.600232
-57.098900 91.097313 13.930589 -0.940939 0.072264 0.330774
51.123260 137.458755 -17.340590 0.939173 0.145425 -0.311136
32.127678 74.001671 43.502979 0.419765 -0.143620 0.896198
28.431221 54.512669 -52.312271 0.653950 -0.457241 0.602728
33.126038 137.188568 -64.731354 0.881179 0.343163 0.325213
-30.908043 167.684464 34.882729 -0.683477 0.383972 0.620826
29.630791 147.833191 55.620350 0.623557 0.194283 0.757252
-11.475924 50.337322 -41.608688 -0.253078 -0.839146 -0.481441
27.825609 0.262839 2.335433 -0.203747 -0.978184 0.040541
45.005386 171.089233 9.745214 0.920714 0.343667 0.184875
50.571587 121.057892 21.436872 0.922852 0.069009 0.378923
36.124729 122.160919 -72.574486 0.994189 0.066902 -0.084334
-30.458214 102.442749 44.498974 -0.419053 0.071954 0.905106
-19.045300 179.626999 -33.969070 -0.315798 0.578375 -0.752166
6.657309 82.631882 -90.462097 0.000000 0.000000 -1.000000
22.396627 174.205048 36.960968 0.399085 0.493781 0.772600
36.011223 122.909180 -62.830318 0.946649 0.162615 0.278230
-48.212830 64.197006 -26.152449 -0.810153 -0.204196 -0.549505
10.616375 190.009949 25.675129 0.208415 0.883840 0.418796
-42.420944 64.860809 -33.436569 -0.711707 -0.239672 -0.660326
23.419346 5.466988 12.023235 -0.694409 -0.561874 0.449549
42.473026 87.249413 37.205334 0.727132 0.044241 0.685071
54.234032 126.832169 9.361831 0.977914 0.113864 0.175268
7.592961 128.132431 63.504887 0.093515 -0.289650 0.952553
-31.173862 69.455338 -49.517754 -0.918996 -0.214416 0.330865
-19.907785 181.316589 32.921700 -0.340123 0.624174 0.703366
-39.777382 144.786148 40.875694 -0.989936 0.118484 0.077379
1.795774 150.300919 -65.639336 0.005875 0.989492 0.144469
49.286758 84.378090 -29.930279 0.756253 -0.016101 -0.654082
2.208761 118.991592 58.055031 0.084973 -0.808818 0.581887
25.168541 137.497849 59.205482 0.447239 -0.022771 0.894125
-38.372723 78.073616 -40.419792 -0.613909 -0.135349 -0.777686
41.962032 138.672043 32.218231 0.782453 0.087772 0.616494
41.088882 92.462799 38.065937 0.584726 0.032478 0.810580
-32.481941 83.249008 -82.772675 -0.617764 0.000000 -0.786363
-29.912180 118.413033 -84.324020 -0.618093 0.076305 -0.782393
-29.494450 165.106232 40.180222 -0.510598 0.353277 0.783891
-47.966743 0.790850 -8.413925 -0.176213 -0.977898 -0.112532
54.143620 136.426086 -4.994868 0.984626 0.150193 -0.089185
-35.583088 69.546852 -75.081543 -0.905684 -0.073708 -0.417497
31.396133 65.018646 41.824505 0.410242 -0.269717 0.871180
-11.156979 149.464111 63.350838 -0.269620 0.202622 0.941408
-16.528545 67.067078 -88.646576 -0.084801 -0.251148 -0.964227
-39.639122 141.829971 41.972633 -0.988268 -0.101056 0.114515
51.686844 126.837067 -20.077026 0.856035 0.125415 -0.501472
12.414162 149.080826 -60.194630 0.104444 0.981303 0.161668
-45.368500 160.198685 -20.813665 -0.850144 0.195633 -0.488859
-57.486797 36.955643 -2.741220 -0.979123 0.005861 -0.203182
17.944843 48.258606 -75.882950 0.094692 -0.839921 -0.534383
-54.095547 134.827377 4.907310 -0.979849 0.126942 0.154210
-39.872517 124.657913 35.269714 -0.700554 -0.055091 0.711469
-31.033192 57.712761 -54.280823 -0.823979 -0.386138 0.414676
34.275223 86.465279 -53.223072 0.937520 -0.013071 0.347685
36.486828 122.520905 38.541851 0.599682 -0.050938 0.798616
0.276124 169.982742 53.953541 0.091964 0.740129 0.666147
36.267128 183.397293 -11.230736 0.697598 0.677405 -0.233411
27.963320 45.640121 31.061312 0.385591 -0.683200 0.620127
50.023846 139.919189 -19.509207 0.939173 0.145425 -0.311136
-29.105381 66.435921 -44.680565 -0.798232 -0.352600 -0.488363
52.981377 28.752800 -14.063505 0.848203 -0.011042 -0.529556
-2.695828 31.326487 14.600049 0.001507 -0.956966 0.290197
55.915001 25.875086 9.312009 0.847873 -0.006942 0.530154
57.693775 68.466866 -8.394442 0.978676 -0.141281 -0.149106
22.756191 137.010986 -83.102409 0.332728 0.458478 -0.824069
-55.922371 103.669388 13.611870 -0.930270 0.112475 0.349210
8.854218 194.828674 14.366304 0.080348 0.964561 0.251329
-55.541363 39.693420 -10.149710 -0.856108 -0.015850 -0.516553
-32.795551 107.742798 -49.965157 -0.926955 0.029340 0.374023
-12.508224 24.184280 1.244178 0.709222 -0.671818 0.213695
-36.237198 94.762093 -75.057343 -0.909090 0.000000 -0.416600
52.977242 128.477249 13.497204 0.933325 0.084345 0.348984
3.611938 49.015816 -78.538666 0.000000 -0.844272 -0.535915
56.709385 94.609764 14.271271 0.940939 0.072264 0.330774
29.648907 122.782211 -45.427006 0.842474 0.163603 -0.513294
-16.555923 14.031977 0.386181 0.973430 -0.130461 0.188188
34.817635 81.957817 -55.116177 0.942876 -0.104501 0.316330
20.610716 110.473930 -89.132416 0.289237 0.000000 -0.957257
-36.820190 101.302666 -71.249962 -0.994806 0.003727 -0.101723
-38.464088 0.154300 7.882805 0.000000 -1.000000 -0.000000
29.014914 41.761887 -27.570236 0.103835 -0.482046 -0.869971
-48.549404 87.463821 -30.858772 -0.756253 -0.016101 -0.654082
-36.031891 169.840164 28.036140 -0.657376 0.423719 0.623153
19.486027 58.175522 44.060795 0.230416 -0.475666 0.848911
47.427952 64.467522 -27.410143 0.810153 -0.204196 -0.549505
-56.311584 35.526989 -8.451180 -0.979246 0.006389 -0.202575
-53.272400 2.096148 -1.081008 -0.602449 -0.788501 -0.123777
3.649794 107.843277 -90.462097 -0.000000 -0.000000 -1.000000
56.572037 94.620346 14.659683 0.940939 0.072264 0.330774
-24.106823 146.527832 59.314575 -0.452884 0.199990 0.868850
-44.146107 56.647633 -27.036425 -0.754659 -0.367992 -0.543205
-31.064236 145.991150 54.912590 -0.623557 0.194283 0.757252
-11.847518 67.736038 -89.232498 -0.084801 -0.251148 -0.964227
-23.267296 158.412170 55.864109 -0.420179 0.404408 0.812345
52.784187 141.852707 6.804191 0.977428 0.145451 0.153224
37.902058 130.661362 40.353455 0.823749 -0.278498 0.493838
34.180599 133.714249 -63.922646 0.881179 0.343163 0.325213
-34.831879 161.341080 35.968449 -0.746666 0.664951 -0.018146
-47.149368 60.890514 -25.738409 -0.754659 -0.367992 -0.543205
-53.215969 92.958061 -23.201149 -0.855015 0.053411 -0.515846
24.695541 58.583916 -43.100323 0.694287 -0.551213 -0.462742
23.459934 188.825104 -19.132145 0.368272 0.838887 -0.400805
19.167728 96.645065 49.491974 0.252758 0.026871 0.967156
30.793203 163.506653 -36.369122 0.563481 0.255085 -0.785761
6.850556 117.343948 -90.148834 0.000000 0.080980 -0.996716
29.811106 52.115322 -69.666458 0.632023 -0.743787 -0.217550
-19.498783 125.165642 58.330635 -0.410361 -0.483200 0.773383
25.460154 43.184544 -29.119619 0.286277 -0.625369 -0.725920
-18.130842 104.583504 -89.728462 -0.086957 -0.000000 -0.996212
46.967361 6.549023 -16.764763 0.524939 -0.455754 -0.718837
-50.101952 148.397919 -15.094824 -0.936657 0.167051 -0.307845
-0.494736 124.844818 62.893967 -0.093506 -0.497966 0.862141
54.993904 92.046646 19.796047 0.942295 0.078733 0.325395
56.533615 93.995270 -15.277799 0.944753 0.059521 -0.322332
1.433179 164.443420 58.833633 0.093530 0.568590 0.817287
14.446894 147.805817 -74.431503 0.094036 0.822412 -0.561067
20.908348 4.157663 -4.397863 -0.804572 -0.571870 -0.160087
47.132217 121.761009 -28.862246 0.854682 0.105409 -0.508337
-25.402212 73.294525 -87.288795 -0.288171 -0.085788 -0.953728
-34.652664 0.154300 -6.143561 -0.000000 -1.000000 0.000000
37.167133 111.741051 -64.254440 0.971171 0.018669 0.237652
33.060860 92.551025 43.845043 0.426607 0.018093 0.904256
31.631039 146.886505 -39.588730 0.604494 0.152619 -0.781853
-15.708294 193.454132 13.907507 -0.234580 0.941585 0.241641
53.854366 136.171906 -8.605322 0.988110 0.125217 -0.089214
33.602959 108.308319 -80.805679 0.909090 0.000000 -0.416601
-47.357109 161.133469 -15.798549 -0.934361 0.198352 -0.296019
-0.157054 33.493546 21.269394 -0.000399 -0.881246 0.472658
-45.006996 130.975876 29.370012 -0.789854 0.044960 0.611644
14.670834 35.367744 24.020914 0.134047 -0.802084 0.581973
-19.826212 66.512970 -87.945038 -0.307222 -0.244052 -0.919812
-2.046987 189.549744 27.949051 -0.076726 0.816199 0.572654
11.597651 194.992950 -11.684509 0.224179 0.936685 -0.269007
-33.760860 79.508018 -43.836910 -0.567761 -0.026837 -0.822756
-37.255081 76.683647 -65.323395 -0.992954 -0.074167 -0.092422
58.481956 88.317192 10.570545 0.990071 0.081309 0.114669
34.470085 140.770721 52.152893 0.796579 0.014650 0.604357
56.361660 11.194249 6.601268 0.976391 -0.081466 0.200058
47.699974 56.075806 22.755507 0.708862 -0.210916 0.673075
-41.090851 53.152920 -27.754017 -0.549033 -0.362493 -0.753102
-45.403267 69.385406 -31.976795 -0.723692 -0.275062 -0.632939
28.178312 190.198822 -6.862156 0.400704 0.912563 -0.081637
-28.889023 53.338921 -74.404701 -0.592997 -0.647419 -0.478752
-52.708603 9.221151 12.942581 -0.840083 -0.104185 0.532358
34.161510 132.204468 -62.277824 0.881179 0.343163 0.325213
39.269737 34.204102 -23.670286 0.289034 -0.141651 -0.946781
43.758408 100.316772 -35.511261 0.756986 0.062902 -0.650396
23.257305 167.909790 45.031544 0.402011 0.887073 0.226911
-19.006924 29.855665 -18.823227 0.310546 -0.446764 -0.839025
16.044504 155.440170 -45.121037 0.265869 0.203397 -0.942307
7.734554 191.310364 -22.961788 0.078617 0.883325 -0.462121
52.586281 38.950947 -14.944885 0.852490 -0.024316 -0.522177
-26.170910 78.444717 -87.452393 -0.289237 0.000000 -0.957257
-37.394989 137.109726 47.041779 -0.879308 -0.220158 0.422313
-13.507193 112.523705 50.405098 -0.251244 0.034657 0.967303
-24.015072 80.432220 47.939552 -0.417524 -0.057927 0.906818
-55.095211 73.103729 17.729815 -0.931641 -0.146222 0.332662
-24.354292 76.023865 47.467979 -0.419765 -0.143620 0.896198
41.847221 63.287910 -33.472553 0.671642 -0.419819 -0.610449
51.561016 67.236465 -22.345568 0.810153 -0.204196 -0.549505
-30.190437 84.452988 -84.572876 -0.617764 0.000000 -0.786363
-53.713608 140.196381 2.400613 -0.977395 0.149184 0.149812
10.252117 45.074329 -57.069237 0.099221 -0.991077 0.089000
49.386913 31.857418 -18.104519 0.601593 -0.036595 -0.797964
-22.234968 174.066620 -36.589561 -0.355455 0.404884 -0.842449
-38.476166 144.162125 -34.736076 -0.749281 0.135939 -0.648150
48.261765 35.597332 19.145002 0.606112 -0.051616 0.793703
-25.432905 158.867310 -40.784008 -0.427612 0.162286 -0.889276
57.533138 95.935249 11.638408 0.940939 0.072264 0.330774
-39.659286 58.006073 -32.524529 -0.628727 -0.406633 -0.662836
48.803234 26.126326 -18.250439 0.594102 -0.048234 -0.802942
27.088112 48.037544 34.215717 0.403943 -0.580223 0.707228
25.639668 140.493591 59.046124 0.447239 -0.022771 0.894125
-5.172881 94.453644 -90.462097 0.000000 0.000000 -1.000000
-49.972591 137.842178 19.088306 -0.936865 0.138763 0.320981
-1.585695 193.512482 20.266565 -0.075280 0.902189 0.424720
-23.245718 54.146568 -39.096096 -0.305767 -0.580877 -0.754380
-58.043556 70.873566 -8.379015 -0.978676 -0.141281 -0.149106
45.859768 29.345774 -20.621729 0.594102 -0.048234 -0.802942
-47.703701 148.233826 -21.074991 -0.855416 0.163188 -0.491561
44.940689 90.778152 34.358280 0.727132 0.044241 0.685071
33.593449 107.682922 -43.242783 0.580492 0.073680 -0.810926
-24.756617 50.172066 -35.423309 -0.305767 -0.580877 -0.754380
-7.691210 155.876297 62.170238 -0.094069 0.304925 0.947719
-33.515675 88.929024 -50.913513 -0.942817 -0.023386 0.332489
-19.576656 24.945049 15.223465 0.768723 -0.313171 0.557664
-5.884468 72.847496 -90.033890 0.000000 -0.087988 -0.996122
56.050976 84.509773 17.767630 0.940765 -0.011458 0.338866
51.101612 120.194260 20.303293 0.922852 0.069009 0.378923
-3.991889 126.321594 63.311584 -0.094342 -0.288187 0.952915
46.624943 171.077438 1.701361 0.920714 0.343667 0.184875
-50.087120 62.391174 22.719931 -0.744580 -0.401143 0.533559
-37.702209 180.103195 13.675055 -0.703066 0.642762 0.304229
14.563494 191.468079 20.551544 0.224513 0.887343 0.402762
41.841736 35.811691 22.981590 0.275891 -0.112866 0.954539
51.453674 150.092316 -10.007507 0.937216 0.171225 -0.303821
12.516930 170.902191 48.746544 0.237515 0.920997 0.308791
-20.818516 46.946041 -69.474731 -0.335737 -0.915647 -0.221068
-29.775906 125.731247 -44.421112 -0.816110 0.144616 -0.559509
21.950745 48.955097 -52.528633 0.400530 -0.833008 0.381672
-55.702694 122.845535 -7.122509 -0.990042 0.118025 -0.076728
33.829945 74.084839 -53.898266 0.921847 -0.052960 0.383919
-4.385730 42.747391 -33.344677 -0.063086 -0.715883 -0.695364
45.133156 166.582108 -17.846525 0.907071 0.314352 -0.280010
22.081017 96.438446 -88.688148 0.289237 0.000000 -0.957257
57.890049 108.198669 0.850311 0.976482 0.109977 0.185440
25.627651 51.472248 37.518585 0.337103 -0.574028 0.746226
-53.486107 112.256653 16.850098 -0.925207 0.151357 0.347969
-19.983973 13.778931 -11.500811 0.839441 -0.139525 -0.525235
57.376953 11.097281 1.598773 0.976798 -0.079988 0.198665
-14.215778 122.516510 58.765839 -0.241784 -0.663480 0.708050
36.724373 182.458847 -12.587718 0.697598 0.677405 -0.233411
-48.455032 73.198227 -29.552626 -0.745495 -0.137706 -0.652130
19.620550 97.876663 -89.431595 0.289237 0.000000 -0.957257
-14.236586 148.703018 -70.264725 -0.095277 0.975278 -0.199384
-29.885578 179.312637 -28.269043 -0.481641 0.597037 -0.641537
3.748962 184.406082 34.453320 0.076781 0.689213 0.720479
3.455381 92.058075 -90.462097 -0.000000 -0.000000 -1.000000
-38.426262 141.390671 -35.269279 -0.610864 0.125297 -0.781758
-29.244377 82.596130 -85.316101 -0.617764 -0.000000 -0.786363
-9.751802 37.904850 28.650602 -0.134047 -0.802084 0.581973
-37.383297 128.797089 39.647907 -0.872527 -0.473442 0.120619
-25.932789 102.400230 46.597572 -0.419053 0.071954 0.905106
-54.674660 39.064892 -11.540765 -0.852490 -0.024316 -0.522177
52.126755 110.844170 -22.559101 0.855875 0.091368 -0.509047
19.849701 151.578110 60.371113 0.452884 0.199990 0.868850
5.607471 143.669098 -81.286346 0.000000 0.826073 -0.563564
-51.250153 132.308502 17.190191 -0.933325 0.084345 0.348984
57.798828 16.195168 -1.577053 0.976798 -0.079988 -0.198665
-3.338008 58.251198 -86.556084 0.000000 -0.516523 -0.856273
26.562460 158.053360 53.975124 0.583977 0.434407 0.685756
-17.928780 46.704708 36.523418 -0.206611 -0.617674 0.758809
16.190266 143.577377 -80.319901 0.096256 0.821047 -0.562687
42.285545 0.154300 7.253800 0.000000 -1.000000 -0.000000
52.735947 73.612862 -22.836555 0.842897 -0.138199 -0.520024
-17.927895 124.746658 -88.614616 -0.086156 0.221663 -0.971310
-22.670189 118.890938 49.792362 -0.416148 -0.305205 0.856546
58.455334 94.109634 6.695482 0.989580 0.067294 0.127293
-22.463215 192.312180 9.631660 -0.393574 0.890035 0.230081
12.630774 97.097244 51.231575 0.259262 0.018152 0.965637
-40.162552 45.382645 25.426033 -0.422455 -0.236428 0.875005
29.008581 58.511856 40.350056 0.381400 -0.428107 0.819304
17.044254 19.076937 7.174622 -0.921338 -0.334459 0.198174
-2.446653 197.354675 1.271294 -0.081484 0.992995 0.085559
-55.743469 66.904655 -13.261086 -0.889122 -0.137440 -0.436546
44.569286 2.232130 -14.560091 0.346889 -0.796569 -0.495122
16.800137 119.609917 54.352135 0.401199 -0.766315 0.501798
-52.719959 144.078201 -7.826217 -0.984639 0.149996 -0.089373
-7.840777 75.949646 -90.307892 0.000000 -0.087988 -0.996122
-51.946228 131.365387 15.556540 -0.933325 0.084345 0.348984
-32.239014 108.986717 42.679108 -0.542458 0.091190 0.835119
10.956636 73.681152 -90.001358 0.085625 -0.087664 -0.992463
-42.418079 130.474289 -32.894028 -0.753420 0.120883 -0.646333
-11.831879 25.120701 1.943417 0.709222 -0.671818 0.213695
32.714016 83.454651 -48.662167 0.977306 -0.024740 0.210385
-56.044197 65.279793 12.135599 -0.888995 -0.137437 0.436806
7.994909 40.973610 32.612801 0.065466 -0.758073 0.648875
49.066860 149.358353 -17.723045 0.936657 0.167051 -0.307845
-53.581055 19.054119 -12.931362 -0.845535 -0.011395 -0.533799
-47.483635 53.004417 22.020897 -0.708862 -0.210916 0.673075
-31.158504 142.740494 -40.694603 -0.564303 0.122555 -0.816420
-32.347221 86.198471 -82.878525 -0.617764 0.000000 -0.786363
54.446327 2.836460 0.083289 0.602449 -0.788501 0.123781
-47.078350 111.520874 -30.397242 -0.758035 0.083737 -0.646816
54.494400 29.338833 11.629352 0.847873 -0.006946 0.530153
-57.964115 66.825394 5.297146 -0.978828 -0.100778 0.178157
56.273666 53.365250 -9.315723 0.980303 -0.029655 -0.195258
28.330013 4.460486 -15.571714 -0.464771 -0.543013 -0.699374
53.159119 12.693750 12.911263 0.840083 -0.104185 0.532358
38.959709 149.560760 42.603340 0.934082 0.342131 0.102164
-12.334742 112.640472 50.731239 -0.270242 -0.097536 0.957839
