ply
format ascii 1.0
element vertex 801
property float x
property float y
property float z
property float nx
property float ny
property float nz
element face 0
property list uchar int vertex_index
end_header
-17.274817 192.014755 19.950411 -0.225257 0.941300 0.251425
49.296585 -0.042309 8.493682 0.000000 -1.000000 -0.000000
33.921383 43.287888 -20.868643 0.349607 -0.192204 -0.916969
-21.343857 123.257462 -88.298378 -0.306331 0.230433 -0.923613
-41.918148 61.587852 25.586123 -0.750316 -0.344551 0.564191
-45.964493 131.520172 11.688644 -0.978982 0.102729 0.176182
46.977367 76.917526 28.573929 0.844370 -0.146791 0.515259
11.904255 130.115967 -91.491737 0.000000 0.221638 -0.975129
-27.071928 104.826439 -77.265778 -0.617764 0.000000 -0.786363
30.729336 164.847504 56.278625 0.653545 0.577797 0.488907
24.153225 201.720047 1.396173 0.238312 0.967622 0.083151
53.418480 139.112732 -18.561293 0.939566 0.147842 -0.308801
36.815109 84.340096 -73.377274 0.994398 -0.065041 -0.083316
-19.863111 34.052090 9.793480 0.322365 -0.794287 0.514965
32.074436 42.516590 -70.004570 0.638635 -0.740218 -0.210293
59.599178 80.249832 -14.112999 0.941095 -0.010266 -0.337987
14.698239 57.098900 -75.208572 0.095726 -0.968496 -0.229894
-10.903306 40.130661 -27.095312 -0.043039 -0.733339 -0.678500
-31.031517 118.729469 -56.783638 -0.920440 0.074107 0.383794
15.737752 200.443863 -8.447594 0.235273 0.968075 -0.086466
46.942230 126.802254 -29.740818 0.751277 0.117030 -0.649528
-13.072202 124.290718 63.923771 -0.241784 -0.663480 0.708050
-15.982624 139.014084 -96.190567 -0.085136 0.220834 -0.971589
59.731316 70.550835 -4.230608 0.978828 -0.100778 -0.178155
-44.217606 107.338234 36.666927 -0.696553 0.137204 0.704265
7.964644 61.595284 -39.017502 0.193834 -0.895283 0.401120
-49.114563 166.431656 -23.716045 -0.756237 0.488579 -0.435197
52.813591 75.071190 22.656136 0.841995 -0.139118 0.521240
61.175419 130.860748 11.281269 0.978982 0.102729 0.176182
-44.383114 130.896179 17.534790 -0.851447 0.082647 0.517888
51.409309 87.293037 23.313354 0.850996 -0.020293 0.524780
-32.218140 86.264099 -60.329067 -0.921847 -0.052960 0.383919
21.158602 138.470932 -41.426544 0.550885 0.275714 -0.787723
30.414433 141.217102 -36.863297 0.564303 0.122555 -0.816420
5.222914 166.320831 58.449711 0.093530 0.568590 0.817287
45.168934 81.172760 -39.499172 0.620181 -0.020715 -0.784185
12.977652 32.445831 -67.247444 0.335737 -0.915647 -0.221068
22.395922 11.510165 -11.664187 -0.804649 -0.285302 -0.520713
27.308285 130.329834 -50.393944 0.946649 0.162615 0.278230
-35.255196 67.233719 -95.229256 -0.600815 -0.267888 -0.753165
6.216774 185.619095 -30.096323 0.197056 0.753057 -0.627753
25.717422 183.738770 -14.764578 0.518475 0.771581 -0.368573
-22.888174 145.246094 -45.262974 -0.265869 0.203397 -0.942307
-10.470312 195.068771 -35.745270 -0.077589 0.766882 -0.637080
-11.081851 28.511980 18.379774 0.024578 -0.863546 0.503671
-28.161449 2.117005 13.021951 0.000000 -1.000000 -0.000000
-38.436527 92.773987 -61.321465 -0.975335 -0.003513 0.220701
36.543159 172.641052 15.839924 0.703066 0.642762 0.304229
37.387691 86.761223 -56.323044 0.921847 -0.052960 0.383919
-40.101509 70.631935 35.506466 -0.579715 -0.137132 0.803197
-53.260384 91.130966 13.825856 -0.942295 0.078733 0.325395
-6.325436 118.609009 52.962048 -0.097924 -0.279473 0.955147
3.563625 179.728058 -29.942339 0.082625 0.605127 -0.791830
31.689537 119.317322 -90.851913 0.289365 0.078711 -0.953977
39.771290 94.693283 40.259411 0.581251 0.059598 0.811539
-58.089741 169.785477 -4.586046 -0.942414 0.329806 -0.055525
11.825547 151.582184 -44.664291 0.275520 0.215467 -0.936836
18.715181 12.240705 -10.361267 -0.804649 -0.285302 -0.520713
39.686741 -2.552162 2.259946 -0.000000 -1.000000 -0.000000
30.573254 24.877380 -16.453005 -0.500505 -0.250208 -0.828789
-27.230247 149.168365 63.247280 -0.450307 0.195170 0.871282
-31.606825 21.569653 -17.174868 0.184139 -0.123423 -0.975120
56.690880 133.465302 -5.884398 0.987608 0.134623 -0.080668
-33.157974 96.128143 41.694614 -0.581251 0.059598 0.811539
36.310345 62.199509 -40.549652 0.521469 -0.293050 -0.801369
-15.691701 124.005295 -91.714676 -0.086156 0.221663 -0.971310
35.029228 10.013339 -15.553324 0.251623 -0.177551 -0.951400
35.273899 156.773468 -21.417210 0.739180 0.181774 -0.648514
-54.173855 173.266403 4.948672 -0.836067 0.518510 0.179274
50.262932 144.093048 20.088194 0.929629 0.197593 0.311042
-57.469845 170.250305 4.322309 -0.920714 0.343667 0.184875
12.709743 72.518402 -96.393326 0.086630 -0.086645 -0.992466
-35.188774 186.968857 20.323862 -0.544607 0.744068 0.386996
-54.174984 69.208466 19.540049 -0.841995 -0.139118 0.521240
47.332378 149.008270 -22.141035 0.934361 0.198352 -0.296019
38.347225 161.332153 31.198706 0.813877 0.270683 0.514136
-12.237133 107.677299 -89.750298 -0.289237 -0.000000 -0.957257
29.715570 164.097351 23.656155 0.647263 0.432412 0.627751
-1.640860 158.668030 -54.492371 -0.005875 0.989492 0.144469
-62.870235 100.546768 -19.305901 -0.943623 0.076940 -0.321956
59.975048 92.990692 0.556575 0.991736 0.069011 -0.108152
-47.665627 88.810493 -30.777088 -0.755646 0.043164 -0.653557
-50.334431 65.114601 -29.905037 -0.820716 -0.271318 -0.502803
-60.227695 127.500328 5.902199 -0.978982 0.102729 0.176182
-5.055362 63.230484 39.455181 -0.081083 -0.319212 0.944208
-21.613071 124.278168 -83.815186 -0.306331 0.230433 -0.923613
15.883882 185.192062 35.483078 0.223211 0.651654 0.724931
50.441231 79.201225 21.909004 0.931641 -0.146222 0.332662
21.774172 187.332031 -11.261995 0.374246 0.890619 -0.258338
-17.205114 124.296173 -83.466438 -0.085605 0.079681 -0.993138
-56.585709 75.631630 16.461691 -0.903201 -0.245057 0.352385
37.884174 112.109573 -79.595131 0.906273 0.065544 -0.417581
46.548382 153.879639 -23.725321 0.930898 0.205383 -0.302071
27.100527 125.640953 43.970936 0.617020 -0.140151 0.774367
-34.828388 164.560852 38.137623 -0.736729 0.411083 0.536881
43.494892 82.719673 38.403008 0.731214 -0.021262 0.681817
-57.157295 80.610313 -8.403915 -0.903069 -0.244754 -0.352934
33.646923 121.334259 -36.416367 0.751277 0.117030 -0.649528
15.433842 145.414429 -81.680817 0.094036 0.822412 -0.561067
3.996490 81.902260 52.656200 0.085425 -0.068390 0.993995
8.779298 69.095192 -92.164413 -0.000000 -0.087988 -0.996122
34.509937 60.854202 -80.987106 0.285844 -0.263805 -0.921249
-51.080860 141.440506 20.328733 -0.865962 0.137499 0.480837
55.412926 10.249557 0.579083 0.976392 -0.081463 -0.200056
-57.736637 95.116257 11.616896 -0.990071 0.081309 0.114669
-65.169662 26.118896 2.581898 -0.847873 -0.006947 0.530153
-11.765810 44.161011 -79.484604 0.000000 -0.844272 -0.535915
-23.286346 128.888229 -86.195236 -0.287746 0.216453 -0.932926
-26.652729 115.821648 -82.421730 -0.289365 0.078711 -0.953977
18.072971 135.722488 -54.839046 0.716452 0.597321 0.360422
34.559589 186.673752 -3.573796 0.751105 0.652490 0.100492
50.040169 89.904900 28.111816 0.854623 -0.011908 0.519113
51.180904 87.049843 -24.945877 0.852562 -0.015160 -0.522406
-30.112122 66.458206 -57.271442 -0.918996 -0.214416 0.330865
43.931324 -3.023835 3.447137 0.346878 -0.796570 0.495128
29.231174 89.130814 -38.018997 0.574297 0.034864 -0.817904
37.837650 20.575733 20.145727 0.249384 -0.079280 0.965154
35.946377 180.735626 4.990226 0.752687 0.604011 0.261979
-6.352324 50.693153 40.086582 -0.206611 -0.617674 0.758809
11.281961 151.291901 -69.582832 0.000000 0.976088 -0.217375
29.384010 92.575256 44.466389 0.417524 -0.057927 0.906818
30.559114 135.376846 -76.778793 0.814580 0.366356 -0.449715
-51.383949 26.988184 4.869547 -0.979255 0.005853 0.202545
-41.772400 176.532532 -19.453457 -0.823831 0.507185 -0.253112
47.487087 63.519730 -27.868242 0.742944 -0.394821 -0.540510
-3.472177 41.985672 -52.709263 -0.033405 -0.934088 0.355477
26.492554 164.675583 51.631912 0.546833 0.732810 0.404923
20.868074 73.266083 -83.503059 0.285844 -0.263805 -0.921249
38.093185 53.379723 -35.797882 0.531881 -0.295091 -0.793740
-43.816212 102.097366 31.832375 -0.715289 0.068109 0.695502
-37.393784 174.496719 -22.956083 -0.660194 0.444903 -0.605149
-33.795395 190.610687 -12.538583 -0.397642 0.913588 -0.085079
6.215882 41.889572 38.573559 0.179723 -0.728201 0.661379
-37.163345 67.325806 -52.957291 -0.918996 -0.214416 0.330865
-46.479729 88.329140 35.021156 -0.582888 0.028787 0.812042
-23.417475 26.086821 -14.778980 0.840572 -0.139477 -0.523435
-19.277487 62.620659 -82.338013 -0.600815 -0.267888 -0.753165
2.959135 164.292282 -37.586269 0.091623 0.255497 -0.962458
-46.666836 67.982010 27.103989 -0.723837 -0.140151 0.675587
54.035458 70.407043 23.158224 0.903201 -0.245057 0.352385
40.168327 92.875633 29.410707 0.581251 0.059598 0.811539
-53.599426 85.187218 -24.038260 -0.854621 -0.010706 -0.519141
-41.557865 25.055096 27.324083 -0.249381 -0.079270 0.965155
53.816692 11.503818 19.901251 0.765448 -0.418499 0.488823
10.544570 146.606079 -84.496040 0.086156 0.221663 -0.971310
-34.832859 105.366341 -59.539276 -0.975260 0.004823 0.221010
21.834566 44.416897 -65.194862 0.322970 -0.917206 -0.233289
32.845879 28.624743 -25.096905 0.289034 -0.141651 -0.946781
-47.991062 152.359482 -24.645874 -0.930898 0.205383 -0.302071
23.259413 61.638748 47.985905 0.390512 -0.295254 0.871967
18.484966 10.156602 6.514367 -0.839089 -0.135192 0.526928
-55.517879 134.797455 15.017142 -0.933325 0.084345 0.348984
-31.190069 110.327553 -54.549984 -0.920440 0.074107 0.383794
-50.020126 116.450699 18.876337 -0.813218 0.076673 0.576887
-41.250923 30.983187 15.375963 -0.604741 -0.047003 0.795034
51.859428 146.309494 24.225725 0.929629 0.197593 0.311042
-48.188000 136.185699 16.431612 -0.936865 0.138763 0.320981
50.154076 106.769684 -34.895046 0.758035 0.083737 -0.646816
28.957499 195.166626 -6.559527 0.397642 0.913587 0.085079
-47.146595 140.227249 38.248741 -0.795884 0.098558 0.597373
2.841038 196.425430 7.406742 0.079792 0.992975 0.087369
-47.328827 121.202095 -40.473984 -0.753420 0.120883 -0.646333
-3.682353 172.502640 39.897804 0.080673 0.604075 0.792833
-2.038002 130.212326 -83.678665 0.000000 0.466696 -0.884418
48.306618 170.479385 16.310280 0.803273 0.483981 0.347151
-51.057255 65.179588 20.815214 -0.868032 -0.058627 0.493034
60.119953 73.064110 3.862334 0.986221 -0.064740 0.152242
-20.828938 170.103531 -38.030884 -0.315798 0.578375 -0.752166
23.564817 129.424133 46.825775 0.808457 -0.339282 0.480920
58.840668 73.166786 -6.439943 0.986221 -0.064740 -0.152242
-50.378567 14.470246 -7.834884 -0.845553 -0.094264 -0.525504
-36.982357 58.011974 -29.506561 -0.715750 -0.366991 -0.594155
-27.865114 138.149017 -83.018234 -0.619505 0.626374 -0.473148
-22.067278 132.685852 -37.206852 -0.813506 0.203603 -0.544751
-1.591633 56.251190 -52.520195 -0.033405 -0.934088 0.355477
45.302460 148.751663 28.176107 0.634740 0.259592 0.727817
-11.833674 191.934082 -3.201225 -0.235273 0.968075 -0.086466
29.549644 181.387573 -27.433199 0.332044 0.748856 -0.573552
28.988060 55.932182 29.344069 0.403943 -0.580223 0.707228
-31.297176 108.249702 -78.471893 -0.617764 -0.000000 -0.786363
23.603111 98.743324 -87.993729 0.289237 0.000000 -0.957257
26.873066 106.311012 41.579315 0.412489 0.074643 0.907899
51.552784 111.295860 13.069783 0.925207 0.151357 0.347969
-51.142017 16.594814 7.161230 -0.840083 -0.104185 0.532358
35.848629 73.718109 -74.739166 0.994398 -0.065041 -0.083316
52.089653 74.607086 -19.235285 0.842897 -0.138199 -0.520024
22.315966 53.835571 45.879780 0.230416 -0.475666 0.848911
-38.054493 67.362610 -61.399078 -0.960031 -0.069235 0.271197
-37.203056 170.412033 31.701519 -0.729381 0.324916 0.602024
-28.878345 7.606990 7.674123 0.203746 -0.978184 0.040540
-22.660551 123.675865 -86.949203 -0.287746 0.216453 -0.932926
50.179672 142.177094 -21.497602 0.856035 0.125415 -0.501472
45.873966 127.814720 41.207294 0.823749 -0.278498 0.493838
57.716759 43.223400 17.001612 0.857175 -0.023591 0.514484
46.145489 65.039413 35.702728 0.536474 -0.372881 0.757070
35.159164 81.373672 40.749222 0.582892 0.028795 0.812039
50.298428 63.587173 -31.881929 0.515711 -0.367844 -0.773778
52.205948 121.625633 -32.170437 0.755113 0.100888 -0.647785
18.932531 31.550613 -13.912898 -0.564522 -0.588917 -0.578353
-41.463921 59.761723 -27.211634 -0.754659 -0.367992 -0.543205
-56.958858 156.178696 -1.542585 -0.980841 0.173230 -0.089117
-56.238365 34.376907 -11.627206 -0.979123 0.005861 -0.203182
22.576471 67.143196 -94.058060 0.086630 -0.086645 -0.992466
59.927578 9.429812 14.991497 0.588103 -0.129041 0.798426
25.007771 127.827141 57.476807 0.718556 -0.244134 0.651212
-21.513329 57.324898 30.460415 -0.301166 -0.732605 0.610401
42.532913 177.859741 -4.117083 0.836067 0.518510 0.179274
-28.679277 84.302887 -90.588646 -0.617764 0.000000 -0.786363
22.691135 3.551545 -0.233065 -0.933565 -0.305886 0.186791
-18.338284 187.182571 12.343134 -0.225257 0.941300 0.251425
35.203915 124.955917 -76.154266 0.882976 0.193496 -0.427682
-52.257145 75.390862 14.387360 -0.841995 -0.139118 0.521240
51.300377 36.704380 22.299313 0.606112 -0.051616 0.793703
58.674122 79.036018 -16.588634 0.931628 -0.145232 -0.333131
18.783905 181.491486 12.970704 0.555391 0.794699 0.244938
-0.078206 125.286224 52.927177 0.091111 -0.657231 0.748162
57.909302 34.479488 -10.299965 0.850399 -0.006764 -0.526096
14.589891 186.750931 18.489143 0.224513 0.887343 0.402762
33.811718 97.407944 50.645237 0.419052 0.071961 0.905106
-12.285014 24.526911 -4.737381 0.972860 -0.134279 -0.188448
44.540134 139.812546 18.516685 0.936865 0.138763 0.320980
-52.309837 158.915451 -7.636366 -0.976236 0.206436 -0.065930
27.704422 98.738762 -81.498215 0.909090 0.000000 -0.416601
0.837306 169.732880 52.696259 -0.093453 0.742118 0.663722
-52.705662 95.076012 -12.046453 -0.943623 0.076940 -0.321956
2.142573 189.166626 -16.188097 -0.077737 0.959091 -0.272215
2.745443 35.706367 -17.836157 0.016204 -0.863766 -0.503633
-27.118332 74.872505 -83.465683 -0.289237 -0.000000 -0.957257
-65.129074 148.546646 -10.634743 -0.937216 0.171225 -0.303821
-56.852020 85.347168 13.639884 -0.940765 -0.011458 0.338866
-22.928999 169.300140 -39.455986 -0.355455 0.404884 -0.842449
-12.270492 74.928444 -89.187798 0.000000 0.000000 -1.000000
-25.034378 110.696999 -59.167450 -0.994788 -0.000000 -0.101969
-13.392647 126.600754 -93.117363 0.000000 0.080980 -0.996716
-26.069870 44.169807 -65.040741 -0.632023 -0.743787 -0.217550
-17.247158 187.729996 -11.551884 -0.224179 0.936685 -0.269007
43.113087 54.497440 -30.718182 0.417803 -0.486669 -0.767199
22.418566 49.016823 44.886505 0.230416 -0.475666 0.848911
46.889011 13.890167 9.900913 0.845553 -0.094270 0.525504
-26.307516 121.698158 -73.349289 -0.906271 0.065544 -0.417585
-6.064102 142.065887 -79.705391 0.000000 0.466696 -0.884418
51.868958 65.917114 -20.822783 0.810153 -0.204196 -0.549505
-61.758213 112.649246 -13.360551 -0.990042 0.118025 -0.076728
-22.218079 114.783363 -89.881424 -0.288360 0.077824 -0.954354
50.299370 138.884796 -7.965957 0.984626 0.150193 -0.089185
47.429150 107.236290 4.759098 0.977374 0.139943 0.158607
43.492580 174.312027 -5.728414 0.942414 0.329806 -0.055525
10.977080 163.529175 -45.440884 0.358974 0.409632 -0.838653
-31.261316 156.868088 40.968212 -0.851718 0.456242 0.257721
-31.596766 101.922272 -85.229408 -0.617764 -0.000000 -0.786363
-41.668537 75.146568 -48.549263 -0.942876 -0.104501 0.316330
39.125225 86.735794 41.979691 0.586985 -0.031165 0.808998
-30.489397 96.115669 -48.207447 -0.577701 0.032843 -0.815587
34.907459 112.919548 42.376068 0.639425 0.185611 0.746113
-60.601719 27.936651 -16.322222 -0.850399 -0.006764 -0.526096
12.411116 149.138153 -71.411873 0.113859 0.969469 -0.217179
7.397974 44.817608 -83.722435 0.335737 -0.915647 -0.221068
-35.915009 162.004730 -32.789085 -0.565744 0.260703 -0.782283
-29.731892 172.068771 -29.780357 -0.457826 0.562889 -0.688151
26.714920 0.135555 -27.962694 -0.161614 -0.514654 -0.842029
-54.372318 131.839615 13.791828 -0.933325 0.084345 0.348984
30.526075 72.062767 -88.747330 0.617764 0.000000 -0.786363
-18.407961 90.272804 -96.567726 -0.086957 -0.000000 -0.996212
-45.018616 61.951267 35.699123 -0.643934 -0.301477 0.703179
-0.912364 178.927460 38.895592 0.081701 0.667904 0.739750
-19.816042 175.725800 -40.515491 -0.222735 0.411566 -0.883744
-54.929806 131.233719 14.772077 -0.932648 0.103194 0.345714
-49.968189 87.816818 -13.984576 -0.941095 -0.010266 -0.337987
-52.161625 58.890800 -13.126007 -0.889122 -0.137440 -0.436546
57.289837 129.675903 -2.478154 0.977914 0.113864 0.175268
45.283066 58.741135 -18.072845 0.640656 -0.089886 -0.762548
-53.762722 101.808792 -19.338760 -0.855556 0.072878 -0.512554
-18.475204 8.847808 -13.035003 0.700094 -0.560849 -0.441946
-33.998997 161.782684 -32.184605 -0.736813 0.184618 -0.650402
28.782219 34.988564 35.668667 -0.371874 -0.409963 0.832851
-4.884331 65.352127 -95.393982 -0.085625 -0.087664 -0.992463
-3.154225 67.091476 44.466221 0.085472 -0.313340 0.945787
34.478577 117.549156 -86.552933 0.906273 0.065544 -0.417581
32.814499 129.126740 -59.904991 0.829433 0.312397 0.463086
-54.439808 85.534386 15.162521 -0.942295 0.078733 0.325395
6.068690 149.571762 -48.022038 0.110478 0.430139 -0.895977
15.950405 88.423515 -90.299164 0.086957 0.000000 -0.996212
13.341310 163.452332 59.921616 0.411503 0.557153 0.721280
-38.660965 122.671822 -25.649408 -0.627140 0.094845 -0.773110
1.170038 74.349747 52.471302 -0.082792 -0.072377 0.993935
34.450825 153.632462 44.662846 0.814655 0.479062 0.326858
0.017998 169.720474 60.311481 -0.091964 0.740129 0.666147
34.119297 87.000603 -70.895020 0.994778 0.000000 -0.102066
-10.071947 31.875141 2.911248 0.913903 -0.349615 0.206279
35.220249 79.371803 46.526722 0.417524 -0.057927 0.906818
-27.498934 58.659187 -56.264332 -0.823979 -0.386138 0.414676
37.201012 -0.525780 11.542906 -0.037838 -0.979644 0.197142
-16.893763 146.725632 -54.330868 -0.122709 0.943349 0.308278
17.725248 166.414490 -37.775776 0.250229 0.244363 -0.936842
29.901230 72.231491 42.871746 0.419765 -0.143620 0.896198
-7.513342 119.925095 -87.811340 0.000000 0.080980 -0.996716
27.879736 63.653442 -65.961594 0.960031 -0.069235 0.271197
-1.826933 195.298477 6.990232 0.080348 0.964561 0.251329
48.160782 155.510773 -4.744652 0.971537 0.222740 -0.080638
61.821651 93.441162 0.838098 0.989580 0.067294 0.127293
-28.108690 65.004890 51.557186 -0.390512 -0.295254 0.871967
-41.653503 75.144066 -48.314079 -0.556999 -0.148238 -0.817176
23.667913 39.631313 -50.749287 0.097874 -0.951633 0.291231
42.645813 145.848816 10.485396 0.970381 0.190718 0.148282
-16.624380 157.206924 -58.427399 -0.015578 0.954019 0.299341
-29.817350 167.857010 14.695965 -0.795491 0.327323 0.509955
37.792110 171.041412 10.823675 0.920714 0.343667 0.184875
-10.959767 127.442207 61.478703 -0.094086 -0.125771 0.987588
50.743999 137.958801 3.949077 0.988110 0.125217 -0.089214
33.903389 178.799347 -9.838314 0.558311 0.825354 -0.084139
1.054673 29.109318 -1.602070 0.037390 -0.994771 -0.095045
-30.080294 148.129730 -35.470417 -0.488203 0.136133 -0.862047
4.444102 53.616398 -89.866302 0.000000 -0.516523 -0.856273
6.660518 114.659035 54.961411 0.254759 0.047873 0.965819
-23.507282 61.002869 -40.852375 -0.768766 -0.354972 0.531972
28.153322 166.618759 -39.807587 0.355455 0.404884 -0.842449
-22.185266 150.865768 -60.677773 -0.333192 0.924435 0.185480
-42.543182 139.229294 31.496307 -0.924245 0.315112 -0.215580
-11.258289 27.196577 -15.929570 0.025698 -0.963475 -0.266562
49.694576 150.977966 22.374722 0.865962 0.137499 0.480837
-49.247482 25.211313 19.017483 -0.588103 -0.129041 0.798426
-14.978409 98.828979 -89.538269 -0.086957 0.000000 -0.996212
-37.025978 91.039688 -62.892071 -0.977985 -0.013844 0.208216
-0.745153 191.461868 18.718466 0.075280 0.902189 0.424720
30.693108 46.376961 -66.275299 0.322970 -0.917206 -0.233289
-56.199268 145.570053 -10.163475 -0.936657 0.167051 -0.307845
49.602097 62.750202 27.290997 0.702631 -0.236836 0.670983
55.719429 102.825706 -10.284893 0.990787 0.081572 -0.108107
-8.880045 189.709427 -20.826742 -0.224179 0.936685 -0.269007
-22.470686 13.772517 15.043889 0.973430 -0.130461 0.188188
47.716354 77.600296 42.450737 0.579715 -0.137125 0.803198
-30.625362 65.585991 50.848030 -0.410242 -0.269717 0.871180
-19.356283 100.346291 -83.138977 -0.289237 -0.000000 -0.957257
38.840519 114.958046 33.770752 0.685091 0.077475 0.724326
-45.889130 165.431915 -20.781807 -0.826587 0.305971 -0.472373
-53.589718 129.984177 -24.721867 -0.856019 0.108895 -0.505344
58.241013 82.095909 -19.150112 0.944205 0.057191 -0.324356
29.254925 43.601692 23.897373 0.385591 -0.683200 0.620127
42.462704 20.712601 -25.466539 -0.182331 -0.119908 -0.975898
57.749630 54.129864 -3.001984 0.870217 -0.088801 -0.484600
-23.238794 94.634529 54.650036 -0.248906 -0.011499 0.968459
-25.163822 75.732498 -93.234840 -0.289237 0.000000 -0.957257
-14.485682 191.121887 -19.860832 -0.224179 0.936685 -0.269007
21.419746 167.128922 51.921730 0.575165 0.408026 0.709013
-40.505413 169.682739 -13.774634 -0.823831 0.507185 -0.253112
33.821377 149.744431 40.945282 0.934082 0.342131 0.102164
-30.567701 112.437279 -47.541866 -0.629876 0.056364 -0.774648
56.728302 37.918781 12.544093 0.979111 0.006363 0.203226
1.554354 28.901066 2.010529 -0.037390 -0.994771 -0.095045
-1.646003 168.329681 55.254105 -0.093954 0.424796 0.900400
54.197861 21.927670 -6.399817 0.979378 0.006408 -0.201936
42.263668 182.282425 -12.472723 0.690960 0.681773 -0.240334
44.963760 0.223118 12.647076 0.118136 -0.978576 0.168621
-34.815052 124.807625 -57.522751 -0.994189 0.066902 -0.084334
-60.317413 59.243923 3.002831 -0.979270 -0.064354 0.192067
53.306610 51.077427 1.750930 0.851550 -0.016163 0.524024
-14.694561 144.953857 58.431702 -0.269656 0.100763 0.957670
37.960400 77.549423 28.937054 0.731214 -0.021262 0.681817
16.722523 166.426071 -45.202873 0.262354 0.258483 -0.929708
-29.802462 45.951340 31.056969 -0.403943 -0.580222 0.707228
9.465079 193.652206 26.213419 0.205157 0.671059 0.712454
-0.258706 161.084473 52.695774 -0.094080 0.425002 0.900290
12.443547 178.211151 38.568977 0.240765 0.626613 0.741208
-45.492599 145.853149 -34.594303 -0.853710 0.158142 -0.496155
18.831224 99.208298 -41.591091 0.580558 0.052578 -0.812519
-54.427773 101.081459 27.065277 -0.846198 0.106067 0.522206
-29.486700 77.241554 -47.198853 -0.976704 -0.059478 0.206183
40.369091 166.311615 25.550497 0.736729 0.411083 0.536881
-51.951077 154.274658 6.376740 -0.971537 0.222740 -0.080638
33.007153 2.617460 -14.614464 -0.037838 -0.979644 -0.197144
36.234131 69.019836 -60.774860 0.960031 -0.069235 0.271197
2.386833 104.262375 43.430435 -0.090853 0.012360 0.995788
28.718441 84.232582 -55.345364 0.942876 -0.104501 0.316330
14.681881 138.091446 59.944813 0.094792 0.002781 0.995493
-32.818703 -1.836803 9.482147 0.037838 -0.979644 0.197142
-46.992645 154.927689 -23.719908 -0.853710 0.158142 -0.496155
-0.148167 191.325943 -4.633151 -0.080270 0.959608 -0.269645
-17.211514 185.059143 19.190956 -0.208851 0.800135 0.562285
11.859202 195.782669 -11.684527 0.080270 0.959608 -0.269645
2.203016 148.159164 -59.716915 0.024814 0.948180 0.316763
-36.420727 175.582962 5.788334 -0.832806 0.451290 0.320579
37.361595 172.803192 -3.830661 0.850965 0.522368 -0.054676
38.359161 103.081581 -38.527508 0.629876 0.056364 -0.774648
-29.207102 7.226681 20.075676 0.456872 -0.564507 0.687458
-40.256699 180.014359 -0.637701 -0.723835 0.687053 -0.063416
32.631516 180.421219 31.432007 0.349456 0.846771 0.401073
-54.927849 85.321587 -3.588595 -0.992105 0.007052 -0.125211
26.234106 163.432205 -40.155338 0.402186 0.250037 -0.880754
-42.820911 56.299858 -68.900406 -0.882147 -0.435144 -0.180186
-2.101744 72.148018 45.057083 -0.085331 -0.157932 0.983756
22.347174 174.976501 -39.532757 0.222735 0.411566 -0.883744
56.451931 70.260735 -20.163380 0.903069 -0.244754 -0.352934
-18.602018 143.760605 57.566105 -0.268227 0.098311 0.958326
-51.577820 96.615379 -13.197706 -0.991736 0.069011 -0.108152
40.115807 126.353104 42.522621 0.808457 -0.339282 0.480920
-28.096283 189.534912 -11.828026 -0.393064 0.888040 -0.238508
43.685326 11.106771 15.557301 0.588103 -0.129041 0.798426
-16.476645 178.018845 -30.000458 -0.078155 0.601748 -0.794853
45.844288 22.934752 23.672121 0.249381 -0.079270 0.965155
-28.608784 35.565224 -25.061171 -0.159955 -0.503784 -0.848891
-33.771328 133.378357 53.880692 -0.721971 -0.287617 0.629312
20.221376 53.199802 -75.181610 0.347198 -0.789428 -0.506219
11.390632 148.941696 -74.832619 0.000000 0.826073 -0.563564
-32.256336 77.472649 -44.210316 -0.620181 -0.020715 -0.784185
-3.831789 147.644058 -64.825294 -0.104444 0.981303 0.161668
-37.679394 117.111755 23.607895 -0.751904 0.208013 0.625597
50.468090 70.230179 0.323758 0.978676 -0.141281 -0.149106
-2.472657 155.630966 56.912537 -0.094080 0.425002 0.900290
-19.426500 147.172348 -50.007202 -0.200771 0.979379 0.022517
34.569695 84.474167 36.338745 0.586985 -0.031165 0.808998
-16.230244 27.627100 -11.603165 0.301919 -0.806896 -0.507704
35.741539 171.247467 -26.186546 0.782229 0.465202 -0.414373
-37.628635 123.094742 40.329494 -0.677254 0.094397 0.729669
8.593581 171.527557 43.252792 0.240686 0.926211 0.290177
25.576504 184.039230 -24.602739 0.463386 0.694129 -0.550870
-35.590240 62.706856 -56.199284 -0.912759 -0.355751 0.200777
24.403835 91.628571 52.329777 0.426607 0.018093 0.904256
-46.886810 55.423565 21.919294 -0.750316 -0.344551 0.564191
-41.674023 113.706642 35.008091 -0.828349 0.168670 0.534217
-44.082661 142.139404 -35.659676 -0.747360 0.132251 -0.651125
-1.719766 91.552864 -94.893707 0.000000 0.000000 -1.000000
-9.593680 34.962234 26.815050 0.024578 -0.863546 0.503671
45.590366 60.714905 16.122194 0.689653 -0.134931 0.711458
46.825977 176.009689 -13.704548 0.900069 0.325381 -0.289833
24.718874 45.432079 33.315456 -0.186101 -0.570111 0.800213
-16.453915 44.409821 -59.952133 -0.502873 -0.725308 0.470156
46.205006 33.808643 17.047136 0.318258 -0.137811 0.937934
41.912590 125.649529 -59.323841 0.891716 0.330816 0.308873
-10.689565 150.365051 -54.787617 -0.015578 0.954019 0.299341
32.300610 188.359116 14.707995 0.563876 0.791181 0.236804
8.075413 45.037888 -31.754543 0.133065 -0.749415 -0.648591
33.602047 62.209309 -34.133743 0.711707 -0.239672 -0.660326
-1.150100 31.276217 -23.695084 0.028247 -0.861871 -0.506340
0.084216 192.694000 29.343895 -0.076781 0.689213 0.720479
21.404436 5.242706 28.486303 -0.526950 -0.282868 0.801442
53.661366 62.161350 21.519121 0.888802 -0.141106 0.436028
48.100517 101.125122 25.876358 0.844252 0.099094 0.526705
-3.580535 198.113113 8.829739 -0.235273 0.968075 0.086466
-56.039627 144.001312 -6.463185 -0.936657 0.167051 -0.307845
-54.789734 9.381817 13.337077 -0.046653 -0.979274 0.197092
14.565916 69.329575 47.484402 0.245055 -0.159103 0.956365
-3.135186 109.133812 55.149292 0.270242 -0.097536 0.957839
55.284630 151.344772 9.988295 0.918256 0.231096 0.321558
11.259589 7.619421 2.424986 -0.933565 -0.305886 -0.186789
-25.362696 168.757721 29.458422 -0.570533 0.515990 0.638942
25.081650 89.302849 47.026028 0.423028 0.051527 0.904651
-41.523777 68.832710 -65.639114 -0.960031 -0.069235 0.271197
-35.721512 37.422462 15.605032 0.123964 -0.194890 0.972960
-1.699489 43.125019 -61.187874 0.000000 -0.959696 0.281039
10.132757 59.370995 47.574471 0.085331 -0.157932 0.983756
19.576010 58.515007 -90.020340 0.088294 -0.518009 -0.850806
-10.231356 84.648918 -84.064163 0.000000 0.000000 -1.000000
-48.789917 119.664566 -5.304656 -0.990238 0.113861 -0.080401
-36.373138 21.959383 25.615215 0.037159 -0.312675 0.949133
35.081039 106.370499 -86.721298 0.617764 0.000000 -0.786363
22.013029 130.629211 -91.705002 0.088593 0.464861 -0.880940
-27.405903 90.256691 -81.668877 -0.909090 0.000000 -0.416600
-43.383286 63.998119 -28.693626 -0.691995 -0.343819 -0.634769
35.504642 159.779144 15.588909 0.747822 0.268482 0.607190
2.001914 126.089432 66.996880 -0.094082 0.001535 0.995563
-22.857021 57.327469 -28.069742 -0.305767 -0.580877 -0.754380
13.186231 110.821480 53.270267 0.090360 0.021574 0.995676
-5.835139 29.463293 -26.220612 0.007680 -0.873585 -0.486610
53.849365 65.337654 -31.923815 0.711707 -0.239672 -0.660326
-42.002567 1.262487 -5.158242 -0.000000 -1.000000 0.000000
-37.795311 11.328625 17.433222 -0.249381 -0.079270 0.965155
5.713003 21.460688 2.173330 -0.915386 -0.350183 -0.198594
-42.385571 33.200733 -15.318583 -0.613271 -0.076559 -0.786154
50.854485 6.305945 -3.420529 0.840080 -0.104186 -0.532364
-20.712418 105.318802 -83.381577 0.000000 0.000000 -1.000000
-7.576426 190.890289 -20.081007 -0.206972 0.864676 -0.457710
42.063118 69.500557 31.441164 0.821865 -0.271353 0.500905
39.311127 95.994598 42.719215 0.567225 0.075911 0.820057
-35.558502 51.697006 -68.280472 -0.903032 -0.400838 0.154475
6.165001 171.436462 -46.302280 0.082625 0.605127 -0.791830
-32.568855 1.212459 -24.199970 0.161611 -0.514654 -0.842029
2.822335 127.846817 70.600906 0.093957 -0.125997 0.987571
-46.751019 119.588181 -32.665249 -0.758035 0.083737 -0.646816
-46.119678 77.641815 -33.340057 -0.756253 -0.016101 -0.654082
-2.442127 46.571114 -35.640049 -0.071728 -0.882401 -0.464998
32.787422 67.274864 -48.180317 0.918996 -0.214416 0.330865
9.143863 92.681084 -81.919189 0.000000 0.000000 -1.000000
35.300034 124.926826 -77.918640 0.887386 0.206625 -0.412131
58.832397 38.444424 -11.369833 0.850399 -0.006764 -0.526096
-32.253094 74.409470 -36.855907 -0.596704 -0.151498 -0.788031
-39.410175 126.364929 -40.339512 -0.756622 0.103497 -0.645610
21.431528 143.307648 -47.225044 0.929025 0.358898 0.090031
-3.403950 35.627842 -30.199312 0.016039 -0.763836 -0.645211
-44.661179 126.245781 -73.260300 -0.994189 0.066902 -0.084334
-33.763008 122.080147 -79.570343 -0.622797 0.231835 -0.747246
-29.784649 39.223969 31.673595 -0.288713 -0.794607 0.534083
-58.770908 87.183006 -9.851253 -0.944751 0.059521 -0.322341
15.045554 111.338150 46.226578 0.276677 -0.779728 0.561671
-37.478958 73.476212 39.452309 -0.579715 -0.137132 0.803197
-19.349590 51.251854 -92.337494 -0.086704 -0.249349 -0.964524
15.649809 25.184252 -19.577326 -0.564522 -0.588917 -0.578353
-41.095070 151.986816 22.577051 -0.900996 0.261005 0.346529
32.635765 131.413254 -47.850224 0.567321 0.127528 -0.813562
-38.040737 92.723541 -62.291130 -0.994512 -0.016083 -0.103383
35.340187 184.142838 -17.886602 0.712121 0.697617 -0.078833
6.534405 29.593361 -5.600178 -0.222753 -0.965109 -0.137642
-30.420666 107.827271 -72.629753 -0.974914 0.011294 0.222295
42.131771 27.964621 -14.282419 0.592029 -0.037346 -0.805051
40.298897 109.155724 -64.454018 0.994189 0.066902 -0.084334
-42.117069 65.320389 28.805235 -0.589042 -0.469500 0.657723
34.328781 126.032837 -84.446327 0.618085 0.076296 -0.782400
-21.084398 106.011322 51.434425 -0.088439 0.016347 0.995948
-2.634785 124.239464 -88.210938 0.000000 0.221638 -0.975129
19.353148 155.956116 -50.989342 0.265869 0.203397 -0.942307
-11.238804 37.210873 20.671776 -0.000399 -0.881246 0.472658
23.335463 129.481766 51.510738 0.595252 -0.495947 0.632227
-50.736691 9.058046 11.802944 -0.221233 -0.475806 0.851273
14.612399 184.759674 -25.258842 0.331029 0.836097 -0.437449
-3.514242 92.126656 -90.391968 -0.000000 -0.000000 -1.000000
-56.514240 139.769119 10.710821 -0.937766 0.143929 0.316037
48.310581 60.683590 -13.549972 0.980386 -0.081416 -0.179482
-41.037529 154.479095 -28.800005 -0.854906 0.188267 -0.483416
0.342322 28.041517 -25.906300 0.016204 -0.863766 -0.503633
35.681332 55.369904 14.954488 0.708862 -0.210916 0.673075
-38.370785 61.325279 35.481945 -0.481985 -0.515149 0.708739
56.171165 20.191689 7.250267 0.979255 0.005862 0.202546
36.683926 78.303902 -37.085163 0.574297 0.034864 -0.817904
-35.067177 6.360248 -13.766084 -0.046650 -0.979274 -0.197093
-27.184984 89.636833 -57.567268 -0.937520 -0.013071 0.347685
-49.780735 19.359161 16.244780 -0.583681 -0.049410 0.810478
-1.120376 75.694458 -92.179153 0.000000 -0.087988 -0.996122
27.742802 175.602905 -33.160686 0.563481 0.255085 -0.785761
35.978928 138.753723 49.982811 0.796579 0.014650 0.604357
-18.168186 34.879940 -20.509932 0.301919 -0.806896 -0.507704
30.566124 140.965881 -40.305386 0.610864 0.125297 -0.781758
-61.295162 80.863899 -20.591372 -0.854621 -0.010706 -0.519141
27.572727 79.060051 -52.214859 0.921847 -0.052960 0.383919
-42.012730 54.306679 16.105076 -0.640662 -0.089885 0.762543
-5.318641 146.674423 -53.873833 -0.066617 0.993318 -0.094241
49.421177 18.442568 -24.125450 0.583682 -0.049419 -0.810477
33.605583 167.777802 -30.096506 0.714029 0.280707 -0.641379
-11.049530 12.658751 -4.593321 0.840572 -0.139477 -0.523435
26.229353 63.993526 44.277157 0.342145 -0.471369 0.812864
38.521023 63.922676 -60.988804 0.877858 -0.092996 0.469805
8.034256 106.227318 55.122059 0.093547 0.004375 0.995605
8.144300 43.155499 40.127121 0.065466 -0.758073 0.648875
-0.866743 56.598377 -86.950417 -0.000000 -0.516523 -0.856273
-39.199528 91.274544 21.061186 -0.727132 0.044241 0.685071
-3.406413 172.877457 56.180588 0.083010 0.943878 0.319693
13.020390 52.775967 -44.027702 0.117230 -0.839099 0.531196
11.568569 22.495628 12.943520 -0.222753 -0.965109 0.137642
7.415551 29.547634 -18.892492 -0.564522 -0.588917 -0.578353
21.282274 149.398911 -51.326202 0.400787 0.880211 0.254163
19.958506 194.176239 16.200994 0.380922 0.892029 0.243274
30.592648 146.642014 48.724003 0.914275 0.162937 0.370882
-33.370068 105.542496 -91.161865 -0.617764 0.000000 -0.786363
10.075325 51.425636 48.923199 0.081228 -0.502411 0.860805
-53.997383 8.204366 10.330274 -0.530148 -0.435575 0.727473
14.775761 59.168640 -73.276665 0.000000 -0.516523 -0.856273
57.766113 13.792590 -11.589382 0.845535 -0.011395 -0.533799
13.857551 181.338486 -33.494984 0.322072 0.583836 -0.745255
-11.499133 165.165298 53.477093 -0.093954 0.424796 0.900400
44.380135 158.904343 5.222817 0.953736 0.241817 0.178638
32.617672 186.861633 20.396713 0.531749 0.748094 0.396987
-45.424423 89.199493 -38.568127 -0.620181 -0.020715 -0.784185
58.186459 116.068367 15.823313 0.925207 0.151357 0.347969
-39.528442 16.735886 23.913071 0.178033 -0.123031 0.976303
29.939562 177.257401 21.846647 0.655663 0.591361 0.469466
24.707727 33.572910 24.388502 0.003713 -0.334702 0.942317
4.532043 58.480244 -78.064636 -0.000000 -0.516523 -0.856273
14.478557 149.089783 -60.523979 0.104444 0.981303 0.161668
-6.171309 92.377556 49.765156 -0.090853 0.012360 0.995788
50.343040 98.238708 22.437754 0.844252 0.099094 0.526705
-2.504538 25.460541 -6.095621 0.008637 -0.961631 -0.274210
21.932673 9.471248 1.879913 -0.800791 -0.577362 0.159335
21.116535 12.563866 -22.236948 -0.804649 -0.285302 -0.520713
-46.212463 94.785339 18.928749 -0.982787 0.135590 0.125479
-28.188034 49.130199 -43.995949 -0.315419 -0.543313 -0.778025
-36.869770 115.954132 -75.120674 -0.906271 0.065544 -0.417585
-20.707022 89.736229 -94.440269 -0.086957 -0.000000 -0.996212
-35.784790 143.504578 50.562489 -0.801702 0.172645 0.572248
-15.860608 60.448257 46.682999 -0.230416 -0.475666 0.848911
10.449726 146.436691 67.277184 0.094755 0.202669 0.974652
46.255920 122.665298 -13.238024 0.854682 0.105409 -0.508337
32.746601 7.022689 6.714355 0.000000 -1.000000 -0.000000
-58.499886 81.179955 -33.876583 -0.852562 -0.015160 -0.522406
65.502686 117.798645 11.327677 0.976482 0.109977 0.185440
60.239147 75.302101 3.931556 0.986957 -0.102826 0.123865
-4.001393 63.500767 -76.643959 -0.000000 -0.250292 -0.968170
5.860872 42.520329 -33.071217 0.115881 -0.720408 -0.683801
-55.452465 128.314377 -1.697747 -0.990238 0.113861 -0.080401
-35.577690 45.589951 15.493299 -0.563214 -0.373559 0.737051
1.818662 190.736176 23.996111 0.078469 0.903396 0.421567
-19.146633 43.960354 -28.536234 -0.068038 -0.713202 -0.697649
33.829247 23.334814 12.797482 -0.182344 -0.119904 0.975896
37.512218 140.061310 43.109951 0.699038 0.003444 0.715076
-18.708809 20.513901 14.152250 0.839441 -0.139525 0.525235
-1.859481 40.559151 -23.794506 0.016039 -0.763836 -0.645211
-10.860991 116.317200 -95.252518 -0.086957 0.000000 -0.996212
-22.268608 201.976013 2.349305 -0.238312 0.967622 0.083151
-26.809532 127.200401 -88.237579 -0.618093 0.076305 -0.782393
19.452139 197.763092 9.322957 0.380922 0.892029 0.243274
-54.110104 80.503838 -16.973841 -0.852562 -0.015160 -0.522406
46.152122 162.117493 -27.519402 0.854906 0.188267 -0.483416
43.017132 96.748421 40.542591 0.423028 0.051527 0.904651
31.556610 98.664047 -43.952518 0.971771 0.034698 0.233360
-42.568710 42.263802 -21.193666 -0.349607 -0.192204 -0.916969
16.885902 203.131104 0.061533 0.238312 0.967622 -0.083151
23.385645 59.008877 36.659779 0.390512 -0.295254 0.871967
-30.233009 26.851694 23.773113 0.147210 -0.180493 0.972498
-53.664227 22.421749 -5.960189 -0.979256 0.005853 -0.202543
7.119202 145.492081 57.247555 0.094748 0.107577 0.989672
30.866863 127.336693 -65.153587 0.981193 0.176090 -0.079074
22.488327 90.000160 49.272148 0.252758 0.026871 0.967156
-34.508209 64.410095 -48.142902 -0.695923 -0.550759 -0.460821
-35.680759 175.785553 32.999714 -0.657376 0.423719 0.623153
-42.364952 2.742989 12.472342 0.000000 -1.000000 0.000000
54.848595 147.533554 29.381630 0.862822 0.100456 0.495425
53.233494 151.604965 -28.206886 0.850144 0.195633 -0.488859
33.232105 169.974030 -29.229595 0.714029 0.280707 -0.641379
22.421791 169.837234 33.062969 0.378018 0.580867 0.720899
49.428722 73.551201 -19.293900 0.945734 0.006219 -0.324882
-36.193821 129.059097 -44.575699 -0.579780 0.093358 -0.809407
-48.921158 57.168331 -26.523430 -0.711707 -0.239672 -0.660326
1.895674 129.933273 -90.124062 0.000000 0.221638 -0.975129
16.672716 68.472954 57.358166 0.085472 -0.313340 0.945787
17.528080 59.033669 41.733677 0.342145 -0.471369 0.812864
-27.683146 72.519463 41.061775 -0.410242 -0.269717 0.871180
60.768291 141.382446 -1.402421 0.939566 0.147842 -0.308801
38.525528 102.328827 -68.862755 0.994806 0.003727 -0.101723
-23.742750 120.336853 -40.148277 -0.622196 0.099001 -0.776576
-36.252766 125.380341 -80.830864 -0.332728 0.458478 -0.824069
36.506111 -4.898007 -6.787975 -0.000000 -1.000000 0.000000
-47.608475 55.738487 27.284773 -0.744580 -0.401143 0.533559
-17.618238 43.985565 33.776665 -0.301166 -0.732605 0.610401
-50.360249 140.728012 -25.570208 -0.855956 0.140965 -0.497461
-8.224976 52.592819 -79.464767 0.000000 -0.516523 -0.856273
-40.839275 59.167595 -59.255314 -0.959423 -0.172091 0.223366
-0.649045 141.087463 -92.206497 0.000000 0.221638 -0.975129
-12.070453 29.760683 -28.147722 -0.094884 -0.743061 -0.662464
-8.058410 43.121552 34.391197 -0.127603 -0.759623 0.637723
-35.447300 108.659843 -77.328148 -0.909090 0.000000 -0.416601
-41.818096 173.374802 6.387107 -0.836067 0.518510 0.179274
-37.315723 92.262337 -57.379791 -0.975335 -0.003513 0.220701
59.763134 10.022306 -7.040008 0.845553 -0.094264 -0.525504
1.734275 52.408527 -87.303787 0.000000 -0.844272 -0.535915
43.319530 92.587143 -21.435575 0.853598 0.050064 -0.518520
29.303507 13.907103 15.613133 -0.551511 -0.138250 0.822632
47.433025 47.733032 27.323990 0.635023 -0.073405 0.768998
7.352535 57.405510 50.079201 0.085472 -0.313340 0.945787
48.115189 139.941437 -25.081751 0.854658 0.137455 -0.500665
-15.005907 172.072525 47.763069 -0.236836 0.562569 0.792102
-13.880166 106.411598 -90.528038 0.000000 0.000000 -1.000000
1.338088 54.600033 48.267731 -0.066601 -0.651800 0.755460
-20.689442 69.434509 46.556950 -0.247074 -0.295458 0.922854
-0.307502 133.018188 63.552513 0.094792 0.002781 0.995493
-16.377890 103.748634 -87.862877 -0.289237 -0.000000 -0.957257
-55.641083 22.585936 -14.644062 -0.845535 -0.011395 -0.533799
17.095640 180.895264 34.142292 0.378018 0.580867 0.720899
51.703575 137.365250 10.497441 0.929629 0.197593 0.311042
-21.647331 12.101123 21.685402 0.839441 -0.139525 0.525235
-15.616758 189.757431 -11.386334 -0.235273 0.968075 -0.086466
52.875332 52.666294 28.685976 0.689653 -0.134931 0.711458
-21.682590 33.938721 20.560646 0.017397 -0.642937 0.765722
17.026075 167.309372 41.948147 0.580348 0.777563 0.242059
-37.749157 179.061569 24.584206 -0.544607 0.744068 0.386996
-39.409874 161.280487 23.637196 -0.795491 0.327323 0.509955
-22.653402 52.494072 -64.009415 -0.632023 -0.743787 -0.217550
42.621269 51.161556 24.748718 0.714420 -0.216459 0.665394
24.535789 156.014679 -35.756340 0.455897 0.219005 -0.862667
-3.062434 42.888298 32.163055 -0.127603 -0.759623 0.637723
-32.237183 122.781792 40.453266 -0.712074 -0.699819 0.056608
-7.824960 125.164787 -91.671738 0.000000 0.080980 -0.996716
47.048679 33.885155 -10.261500 0.856108 -0.015850 -0.516553
-24.074183 46.044674 29.056194 -0.301166 -0.732605 0.610401
-26.241703 146.495560 -60.809486 -0.400787 0.880211 0.254163
-18.444359 58.718346 -62.271107 -0.346700 -0.931411 0.110784
-31.062452 47.564808 -55.097176 -0.639004 -0.760962 0.112294
17.765310 52.844296 -72.367691 0.095241 -0.968433 -0.230360
45.208908 111.049072 -40.939404 0.628190 0.057842 -0.775907
-44.671379 131.142960 -24.919353 -0.854655 0.137446 -0.500673
28.297527 92.995575 -83.598190 0.617764 0.000000 -0.786363
58.007999 90.487465 -12.097967 0.944205 0.057191 -0.324356
-28.056236 164.908371 29.563288 -0.728235 0.452727 0.514502
54.460625 59.614792 23.397625 0.755882 -0.374258 0.537190
26.860935 9.947405 19.143196 -0.176392 -0.250619 0.951880
-27.356174 21.072695 23.488850 0.839441 -0.139525 0.525235
38.070278 105.570824 37.093048 0.828349 0.168670 0.534217
40.093948 101.713974 26.979992 0.828349 0.168670 0.534217
-28.642872 78.878586 30.326315 -0.586981 -0.031165 0.809001
-37.638351 116.509941 -60.478626 -0.967534 0.061753 0.245082
27.388906 136.771912 -70.475639 0.689667 0.707636 -0.153657
-5.999010 32.024311 27.452188 0.000399 -0.881246 0.472658
1.515776 187.796936 -6.777477 0.080270 0.959608 -0.269645
38.674278 173.179001 4.666970 0.920714 0.343667 0.184875
-35.013443 146.986816 -58.474232 -0.689667 0.707636 -0.153657
-17.609131 114.685280 -91.157288 -0.086674 0.080676 -0.992965
-44.761215 133.409622 -0.627076 -0.978982 0.102729 0.176182
10.553892 191.151001 -11.107549 0.238312 0.967622 -0.083151
47.088547 94.319260 29.027794 0.850952 0.060905 0.521700
-23.229885 9.120559 -15.342418 0.934922 -0.299882 -0.189717
-14.941929 153.368835 57.425598 -0.452884 0.199990 0.868850
11.968762 178.105667 37.300762 0.223211 0.651654 0.724931
28.810713 148.410202 -45.033741 0.522061 0.254109 -0.814175
50.315720 146.597076 8.937171 0.929629 0.197593 0.311042
53.707279 8.867944 19.228914 0.346897 -0.796559 0.495133
-42.574753 121.489456 -69.080948 -0.993951 0.059893 -0.092061
-43.071644 159.583191 30.561741 -0.813877 0.270683 0.514136
-61.183887 48.123558 -7.774740 -0.979298 -0.002829 -0.202406
21.078367 -2.347075 -23.081631 -0.444619 -0.563071 -0.696609
54.948055 23.091101 -17.615019 0.592029 -0.037346 -0.805051
35.476990 52.919510 -48.665462 0.860585 -0.147463 0.487492
-17.187750 44.858189 -47.074558 -0.124330 -0.937893 0.323880
58.618671 43.217987 -8.022823 0.856108 -0.015850 -0.516553
-52.420307 137.079849 -14.493325 -0.939566 0.147842 -0.308801
12.891932 94.474991 -92.960754 0.086957 0.000000 -0.996212
-29.788132 156.143158 -38.686691 -0.427612 0.162286 -0.889276
33.840923 89.031097 -75.464569 0.909090 0.000000 -0.416600
-52.748104 45.053780 -16.777611 -0.856108 -0.015850 -0.516553
-55.223328 81.858147 -22.318270 -0.852562 -0.015160 -0.522406
29.492266 157.088120 47.304359 0.557085 0.815090 0.159012
40.586304 71.685341 -25.872654 0.711707 -0.239672 -0.660326
-7.900196 53.248936 -82.239197 -0.092461 -0.514310 -0.852605
42.219353 158.241837 -40.305248 0.591247 0.175154 -0.787241
-40.711784 112.609665 -75.603325 -0.909090 -0.000000 -0.416601
1.875953 34.289497 -9.887959 -0.720413 -0.661864 -0.207224
64.585411 132.594208 2.112639 0.977914 0.113864 0.175268
30.199682 54.169643 -66.143578 0.903032 -0.400838 0.154475
46.258949 64.323822 -17.899328 0.903069 -0.244754 -0.352934
-39.198364 74.456795 -22.085239 -0.711707 -0.239672 -0.660326
-51.597481 138.411270 -26.141638 -0.939173 0.145425 -0.311136
-53.701008 96.610596 -3.660193 -0.989580 0.067294 0.127293
-15.694378 89.771141 -86.624329 -0.289237 -0.000000 -0.957257
2.133403 38.651245 -76.100739 -0.000000 -0.844272 -0.535915
27.868822 137.838089 -84.327713 0.306331 0.230433 -0.923613
40.839222 165.539856 20.425816 0.867335 0.348267 0.355584
-1.399020 171.701294 41.857910 -0.082733 0.671334 0.736523
63.722790 88.653656 19.954399 0.945652 0.006221 0.325121
37.047295 82.214569 38.496361 0.579540 -0.043800 0.813766
61.982235 70.347992 -21.037165 0.931628 -0.145232 -0.333131
-46.286671 109.791580 -29.119411 -0.854682 0.105409 -0.508337
-52.745556 86.558357 -17.592197 -0.842897 -0.138199 -0.520024
-14.228182 191.209778 -47.705116 -0.209033 0.593484 -0.777227
-47.754284 103.082924 -27.840345 -0.853598 0.050064 -0.518520
-4.251341 65.515091 52.752632 0.081083 -0.319213 0.944208
56.409157 69.682465 11.162986 0.980386 -0.081416 0.179484
2.155041 191.646759 36.082317 0.075849 0.815697 0.573485
41.337959 156.461746 24.312717 0.747822 0.268482 0.607190
34.133846 84.882607 -57.251072 0.965919 -0.014151 0.258459
-29.989487 135.069443 -51.375137 -0.881179 0.343163 0.325213
43.306023 166.455536 25.826590 0.878257 0.332922 0.343260
0.682969 200.059311 16.223917 0.080348 0.964561 0.251329
33.308266 133.337372 -71.729057 0.925555 0.365456 -0.098946
36.200626 91.169937 45.867908 0.582892 0.028795 0.812039
3.355620 81.206451 64.917938 0.083929 -0.021393 0.996242
-32.282799 184.691162 14.471611 -0.703066 0.642762 0.304229
55.789379 84.107307 -10.996620 0.991472 0.061630 -0.114830
-50.011356 146.400284 20.382109 -0.929629 0.197593 0.311042
-44.515289 86.047966 -70.225060 -0.994512 -0.016083 -0.103383
-13.088661 17.975466 21.210529 0.841648 -0.135309 0.522800
-1.755680 37.050423 -15.899234 0.025698 -0.963475 -0.266562
-31.459793 138.782257 -43.336441 -0.616000 0.115670 -0.779208
51.626564 30.852676 7.016532 0.847873 -0.006946 0.530153
-25.467110 73.437576 41.386314 -0.417524 -0.057927 0.906818
-36.974731 106.335602 -66.366974 -0.975260 0.004823 0.221010
47.407478 160.019073 -9.317429 0.938366 0.339559 -0.064566
-2.769130 29.240255 -15.720729 -0.025698 -0.963475 -0.266562
-35.777470 5.917593 25.157368 0.163858 -0.227991 0.959776
51.783119 145.473801 2.594450 0.979849 0.126942 0.154210
45.435581 122.285728 -35.797138 0.756622 0.103497 -0.645610
43.315189 36.107468 23.509829 0.635023 -0.073405 0.768998
-19.889326 16.209232 11.106609 0.839441 -0.139525 0.525235
-42.100117 162.931473 25.003246 -0.795491 0.327323 0.509955
20.062614 198.895706 -25.922001 0.080270 0.959608 -0.269645
-16.040312 60.085388 44.396019 -0.230416 -0.475666 0.848911
-6.473514 147.680527 -62.782726 -0.135827 0.970699 0.198228
38.410511 37.001812 23.844900 0.003713 -0.334702 0.942317
-1.686090 197.479080 -13.985088 0.078617 0.883325 -0.462121
-18.075375 159.338226 54.900215 -0.250482 0.563089 0.787521
38.822826 143.810455 27.491924 0.851447 0.082647 0.517888
6.540159 53.302292 -58.810116 0.000000 -0.959696 0.281039
-32.363731 147.635086 59.982609 -0.623557 0.194283 0.757252
-17.092148 12.485773 19.251554 0.526950 -0.282868 0.801442
50.017071 82.767464 -33.739365 0.757670 0.046427 -0.650984
-12.357332 188.884247 33.070427 -0.205157 0.671059 0.712454
62.706844 132.537064 -19.485336 0.940922 0.132286 -0.311715
-49.327999 25.540056 9.038061 -0.979380 0.006410 0.201925
-46.176678 138.625412 -18.195465 -0.939173 0.145425 -0.311136
-4.579898 58.181744 -89.755669 0.000000 -0.250292 -0.968170
46.199043 155.010132 7.884878 0.918256 0.231096 0.321558
58.405960 99.650017 21.648865 0.934120 0.136103 0.329995
34.652416 18.982792 24.437635 0.240977 -0.091586 0.966200
-21.064678 106.474091 -85.920715 -0.289237 0.000000 -0.957257
-53.851444 103.555359 8.516887 -0.982787 0.135590 0.125479
-37.357563 29.284092 -18.799423 -0.289034 -0.141651 -0.946781
-2.702113 144.244873 68.553909 0.094799 0.306176 0.947243
26.365377 180.336578 23.447350 0.342455 0.760108 0.552232
-52.320141 5.460533 11.491770 -0.346882 -0.796565 0.495133
28.948832 44.641300 -72.360428 0.335737 -0.915647 -0.221068
-21.349207 47.351860 -54.276234 -0.325136 -0.941575 0.087880
-41.451176 119.960587 -33.045959 -0.757613 0.083026 -0.647402
61.621624 7.808039 -16.996260 0.770755 -0.404553 -0.492212
67.930801 63.826675 2.740362 0.978828 -0.100778 0.178157
2.057834 60.604687 55.663406 -0.082840 -0.161635 0.983368
-28.935602 128.356293 -75.254723 -0.887385 0.206621 -0.412135
-6.557192 160.017166 -42.482609 -0.101150 0.213605 -0.971669
